-143.905533 -149.232590 24.891159
-143.889206 -148.910873 25.188858
-89.936996 -138.551682 6.572495
-90.176468 -138.026688 6.178543
-90.024979 -138.992813 6.014420
-90.017868 -138.085464 6.535568
-90.237839 -138.715652 6.786423
-138.189407 -101.451920 3.866379
-133.492722 -116.712234 13.166855
-133.689987 -118.791763 10.229019
-136.775375 -117.175095 12.476089
-144.667496 -77.337692 4.368057
-156.197189 -86.340042 3.885880
-152.294662 -95.506393 4.176437
-153.027542 -92.564590 3.634506
-139.318008 -95.555283 3.669052
-148.998428 -79.080734 3.639267
-159.919235 -76.227646 3.578171
-149.018570 -79.091476 3.472031
-146.379562 -74.702591 3.193436
-146.428452 -75.280838 3.654648
-147.340103 -72.062271 3.233902
-147.985062 -72.013535 3.539261
-117.530655 -101.928116 7.964890
-117.929031 -102.066086 12.422989
-117.916855 -102.055588 12.264023
-117.926651 -102.063858 13.207840
-117.908615 -102.049118 9.598984
-118.612717 -102.033615 8.112747
-117.307480 -101.939499 8.148636
-117.521255 -101.919907 8.121353
-117.919144 -102.058060 10.224594
-117.913589 -102.053146 10.692825
-117.916061 -102.055313 10.536789
-117.922501 -102.060806 10.852371
-117.921127 -102.059555 11.166092
-117.917313 -102.056290 11.009415
-117.916000 -102.055038 11.479507
-117.914352 -102.053482 11.949692
-117.931656 -102.068100 13.522842
-97.904587 -103.191116 5.935410
-97.164566 -104.269455 6.302414
-96.502518 -102.118637 6.973038
-97.487350 -102.541306 6.829483
-96.785416 -103.864639 6.420212
-96.315842 -103.154861 7.706131
-101.567978 -96.827530 7.646500
-102.858749 -97.667709 7.580917
-97.891769 -98.916916 4.960129
-98.836075 -98.487503 5.257004
-98.354233 -99.384140 5.122757
-97.757095 -98.982559 5.065048
-97.442093 -99.247543 5.872086
-98.908981 -98.167831 7.458786
-96.136795 -98.521744 7.762589
-99.406021 -100.647751 13.254318
-97.764206 -102.831497 8.413712
-98.194656 -101.427719 9.311935
-96.017593 -100.575302 8.246292
-99.286209 -100.322464 10.981918
-99.367386 -100.203415 11.516617
-101.328812 -99.957535 10.720932
-100.879410 -99.919235 11.561569
-100.220139 -96.113083 10.924149
-96.475723 -98.468338 9.187790
-98.303177 -97.368729 9.875137
-97.436264 -96.118484 9.348007
-98.045212 -99.858627 10.122787
-98.281113 -99.307114 10.588943
-98.601608 -99.630844 10.763687
-96.838120 -98.239426 10.346176
-97.330368 -99.130447 10.188705
-97.726639 -98.154922 10.479721
-96.513107 -98.299393 10.655746
-97.896286 -99.314072 11.161057
-98.152817 -97.994064 10.700790
-99.480667 -97.344437 10.135330
-99.384689 -97.052322 10.012283
-98.264450 -96.153366 11.117355
-97.560837 -96.828232 10.810471
-97.900711 -96.575211 11.051437
-97.203354 -96.279099 11.554947
-100.769638 -97.038132 12.031082
-97.212723 -96.865250 12.480545
-99.079697 -97.935989 13.087753
-94.171463 -100.856583 6.841385
-94.977463 -100.106644 7.835037
-94.012405 -100.885696 7.759232
-95.250992 -101.404221 7.762772
-93.789474 -96.494278 5.892502
-95.470505 -98.614700 7.948776
-94.564957 -96.316391 6.645950
-94.602859 -96.354874 6.784042
-93.621231 -96.892868 6.338638
-93.548660 -96.435135 7.207016
-93.609085 -96.309280 7.360977
-93.969955 -96.299698 7.317612
-93.337723 -100.360123 8.872238
-93.602097 -101.051346 8.618118
-93.844955 -101.524918 8.914169
-92.991013 -98.602219 8.603104
-94.540634 -98.043961 8.242508
-95.469803 -98.416000 9.006912
-95.085129 -98.608078 9.530411
-95.524216 -98.469925 9.563492
-95.137253 -98.459335 9.740158
-95.333084 -98.473251 9.729538
-94.693192 -98.803116 9.496140
-94.622208 -96.180954 8.848129
-94.625717 -97.929092 10.783768
-95.207382 -97.367020 11.212021
-127.781021 -70.137802 3.478531
-101.305862 -94.095810 7.491409
-106.210587 -95.907974 6.738968
-100.707901 -95.054214 7.599594
-103.545486 -92.749863 7.577377
-102.827286 -93.419174 7.502945
-103.316757 -93.101883 7.584763
-96.302200 -95.581039 5.086075
-96.827805 -92.126328 5.214279
-96.828262 -92.126785 5.083511
-98.262314 -94.051071 6.153702
-96.546036 -94.282944 6.474686
-98.523300 -93.368820 7.884262
-97.756241 -93.946579 6.140121
-98.067703 -91.827469 6.134903
-101.434158 -94.214951 8.057083
-100.537582 -95.086807 8.349442
-102.915787 -95.005692 9.135727
-101.096085 -95.037277 8.171249
-101.115891 -95.055893 8.032211
-103.559372 -92.760727 8.415115
-103.469894 -93.239639 8.154465
-103.688766 -93.249222 8.391891
-101.280075 -92.938461 8.342392
-100.134995 -93.947495 10.607986
-97.785995 -94.548935 9.513870
-99.832138 -94.609177 9.094437
-98.369705 -93.776871 9.591507
-99.315048 -93.552231 9.177719
-99.504318 -93.540878 9.139206
-99.054123 -93.492294 9.662003
-96.889877 -92.919388 8.806686
-97.311569 -93.900314 8.205032
-96.209671 -93.764328 8.128799
-99.885422 -94.089432 11.165451
-98.782181 -93.235214 10.594406
-99.754501 -93.588821 11.807968
-97.870987 -93.485306 10.012802
-127.781967 -70.138290 3.624527
-127.792007 -70.143753 3.770798
-123.428879 -68.546768 2.931442
-84.742874 -94.674149 4.038803
-84.046829 -93.137833 4.974716
-95.019852 -95.632156 4.528732
-94.976883 -95.588364 5.199600
-95.998978 -95.279953 6.833542
-95.803513 -95.085739 7.090530
-94.724594 -95.332901 7.075546
-95.316452 -94.792618 7.400711
-94.109818 -94.522873 7.678909
-94.311844 -93.978165 6.348160
-95.207474 -93.535721 7.735306
-94.674911 -93.965042 7.676468
-95.860916 -92.123520 7.620804
-84.020370 -93.681046 5.039871
-84.830368 -94.772141 3.660843
-84.512192 -94.605911 3.823441
-82.676926 -92.927475 4.572250
-83.375656 -92.769821 4.576340
-82.985733 -93.079971 4.698349
-83.902176 -93.356979 5.610397
-82.832535 -92.538956 5.568283
-82.575729 -92.621323 5.920486
-93.767319 -94.368759 9.540268
-94.089310 -95.637894 8.393845
-65.698898 -87.898544 5.905441
-247.415451 -7.138199 6.374008
-247.399765 -7.642807 6.341568
-246.746933 -0.700790 6.305771
-241.086380 -19.815933 5.747116
-241.144241 -19.579605 5.692184
-241.144272 -19.579605 5.934464
-242.381638 -18.939194 6.097977
-242.041550 -19.160355 6.090256
-242.114395 -19.166122 6.337051
-242.730331 -18.720963 6.074020
-241.143356 -19.579544 6.176712
-238.596390 -21.298843 5.718246
-238.179916 -26.323776 6.055679
-238.593094 -21.298538 5.955215
-238.348831 -21.524857 6.084641
-241.808029 -0.444748 5.595474
-249.164597 -6.210434 5.924332
-249.177536 -6.700790 5.964951
-248.612320 -7.937790 5.471756
-249.137253 -7.441757 5.777145
-248.614273 -7.940201 5.719193
-248.579330 -7.676926 5.620438
-248.632156 -7.938400 5.968704
-248.588272 -7.677200 5.867477
-248.646988 -5.446365 5.976883
-248.647232 -5.697159 5.915329
-249.141434 -6.942886 6.092911
-249.144089 -7.439590 6.026871
-249.164291 -7.440201 6.276962
-248.589554 -7.677231 6.118698
-248.604874 -7.937515 6.464554
-248.596329 -7.937210 6.713455
-248.647293 -5.697128 6.164352
-249.171890 -5.965561 6.093185
-248.519669 -3.435196 5.625473
-248.521469 -3.435226 5.874374
-248.536118 -3.686844 5.590744
-248.536118 -3.684464 5.836807
-248.455276 -0.456985 5.247818
-248.181747 -1.454056 5.183212
-248.240646 -1.701706 5.291183
-248.182053 -1.454056 5.431686
-248.231308 -1.701614 5.539627
-248.234665 -1.701645 5.788315
-248.181351 -1.454056 5.680161
-248.185074 -1.454056 5.928726
-248.517349 -0.705826 6.097855
-248.246780 -1.701706 6.039200
-248.455551 -0.456955 6.744431
-241.893875 -0.444901 5.837723
-240.770950 -1.169022 5.109268
-240.694412 -1.168655 5.350266
-240.653793 -1.168442 5.590378
-242.017990 -0.445114 6.083054
-242.176498 -0.201767 6.590439
-261.234146 17.094772 15.968277
-260.938553 17.596298 16.981216
-263.361435 13.787613 16.479019
-263.376907 13.788406 16.741714
-263.542007 13.532883 16.649429
-262.060898 15.820145 16.162766
-263.197891 14.043259 16.370956
-263.040573 14.297958 16.509232
-263.195908 14.043076 16.902573
-263.052383 14.298569 16.774643
-262.719589 14.807510 16.431168
-262.877060 14.553177 16.568344
-262.710037 14.806931 16.695786
-262.059982 15.820053 16.426010
-262.385330 15.308365 16.458145
-262.559189 15.057938 16.781784
-262.383835 15.308243 16.722183
-262.233902 15.564346 16.530228
-262.066696 15.820450 16.691818
-262.218399 15.563400 16.790482
-262.873337 14.552933 17.093948
-262.232132 15.564224 17.055374
-262.571243 15.058609 17.046921
-262.555954 15.057724 17.307175
-262.067703 15.820450 17.484268
-261.725754 16.331741 16.084946
-261.893143 16.076187 16.273361
-261.733871 16.332230 16.349258
-261.416122 16.845322 16.584946
-261.397110 16.842056 16.847031
-261.900620 16.076645 16.541092
-261.736740 16.332382 16.875168
-261.568344 16.586136 16.748734
-261.396072 16.843979 17.110306
-261.903000 16.076736 17.334213
-261.574966 16.586502 17.276047
-261.406815 16.844650 17.374374
-261.746811 16.332993 17.665726
-261.578629 16.588852 17.542892
-261.242691 17.095261 17.024063
-261.244522 17.095352 17.287338
-241.490616 9.959671 4.761826
-241.465530 9.958511 5.484940
-243.471054 9.077835 4.731369
-248.305710 0.038803 6.104538
-247.643723 0.531662 5.623825
-247.646011 0.531662 5.871841
-247.721817 0.282120 5.728043
-247.713058 0.284378 5.975876
-246.482254 0.283005 6.439835
-247.642929 0.531662 6.119736
-247.721817 0.284439 6.720291
-247.728867 0.284439 6.968582
-247.645462 0.531693 6.610611
-245.873276 0.038437 6.290939
-243.290909 1.006424 5.540726
-243.283707 1.008591 5.786545
-242.323746 2.477676 5.510056
-242.565842 2.236252 5.693100
-243.029556 1.499191 6.300766
-241.578018 3.670822 6.093826
-241.790115 3.432877 6.236435
-240.352219 5.578659 4.949936
-240.359329 5.578842 5.190781
-241.101364 4.394272 5.505051
-240.799301 4.870224 5.967758
-240.353531 5.578690 5.431351
-240.365555 5.578964 5.672348
-240.197433 6.053513 5.119919
-241.259476 6.810593 5.439529
-241.259750 6.810593 5.681259
-241.262955 6.810684 5.924576
-240.187027 6.055222 5.359543
-240.205978 6.055679 5.599838
-240.388138 5.579483 6.154404
-240.955673 4.631210 6.086411
-240.237076 5.818069 6.194229
-240.489182 5.343582 6.041000
-240.968643 6.557327 6.276291
-242.921005 8.572708 4.928268
-243.189529 8.823074 4.873184
-242.914017 8.572433 5.171524
-243.177872 8.824753 5.116623
-242.912949 8.570358 5.414902
-242.918625 8.572556 5.901871
-244.636093 5.925980 15.628586
-241.104324 4.394394 8.166397
-240.241684 5.818008 9.805679
-240.696121 5.105331 9.720444
-240.209122 6.055496 9.692276
-240.208847 6.055466 9.932266
-240.358627 5.578720 10.005447
-241.287338 4.156357 10.173111
-241.281906 4.156265 10.409714
-241.268692 4.156052 10.651108
-241.109970 4.394516 10.579208
-240.375687 5.579117 10.488235
-240.353745 5.578568 10.969406
-241.109787 4.394516 11.062851
-241.265366 4.155991 11.376938
-241.103104 4.394394 11.306625
-240.222427 6.057785 10.172836
-240.210373 6.057449 10.414627
-240.204269 6.057297 10.654404
-240.208664 6.057388 10.899185
-241.258286 6.812119 11.968582
-240.215500 6.057541 11.139572
-240.220840 6.057663 11.379898
-240.211105 6.057388 11.619522
-240.213181 6.057419 11.862015
-240.354904 5.580643 12.173172
-240.369095 5.580917 13.138931
-240.368240 5.580887 13.380234
-240.520523 5.346207 13.758408
-240.370224 5.580948 13.619675
-240.406906 5.581772 13.863174
-240.258682 5.820053 13.905045
-242.190872 7.331528 13.931900
-240.212936 6.057388 12.102127
-240.198929 6.057022 12.343826
-241.274918 6.812454 13.418655
-241.266403 6.812180 13.662064
-240.213730 6.057327 13.067368
-240.220322 6.057480 13.307938
-240.220108 6.057449 13.548172
-240.212692 6.057236 13.790268
-240.989029 6.561447 13.766281
-241.158127 7.055557 13.325424
-241.161484 7.055649 13.567886
-240.135117 5.817032 14.136856
-240.152420 5.817429 14.381363
-240.605240 5.105301 14.789444
-240.467758 5.345016 14.720352
-240.315506 5.579636 14.582077
-243.389511 7.866287 14.487015
-242.739487 6.609055 14.842056
-240.218948 6.057358 14.033157
-241.451248 6.331436 14.601639
-252.570633 11.949295 15.246445
-248.049271 9.740250 14.959671
-251.290237 11.636642 15.022629
-254.013687 12.017563 15.590622
-244.561447 8.876450 13.975845
-245.201859 9.387131 14.006180
-247.389420 8.488052 15.296860
-244.151016 8.617447 14.010391
-237.392838 4.324570 4.947098
-237.260666 4.084854 5.486252
-237.166458 4.085281 5.721603
-238.150314 4.814590 4.948074
-238.178818 4.817215 5.189682
-238.297775 4.819626 5.428421
-238.409592 4.821884 5.669754
-238.527420 5.059341 6.053116
-209.051102 25.087906 4.854965
-215.942062 11.738083 10.951553
-217.096420 11.800949 9.699722
-216.984268 11.794754 10.786392
-216.206070 11.319138 10.921829
-216.472549 10.897934 10.958847
-216.612534 10.685959 10.896591
-217.130783 11.585556 10.670334
-217.086258 11.800308 10.573380
-217.125748 11.585281 10.889969
-216.956955 12.009750 9.314407
-216.951584 12.011063 9.747177
-216.956375 12.009689 9.530869
-216.949020 12.010910 9.965012
-216.950821 12.010971 10.401047
-216.725174 12.215378 10.723648
-216.859268 12.005875 10.614578
-216.686844 12.427322 10.580704
-216.843674 12.004990 10.831741
-216.580856 12.421249 10.790634
-215.796371 11.946976 10.996323
-215.660751 12.155380 10.886795
-215.520065 12.360397 10.954391
-209.047195 25.087418 5.063522
-214.221420 17.035690 4.493393
-214.244431 17.035721 4.711746
-214.244431 17.037491 5.142227
-212.529831 19.692001 4.503860
-213.576797 18.058548 4.534225
-213.578568 18.060440 4.965714
-213.582199 18.060776 4.751144
-212.796249 19.286880 4.729355
-212.790787 19.284714 4.515274
-212.792679 19.286545 4.941269
-213.573318 18.060013 5.178055
-212.033066 20.709976 4.653275
-212.149124 20.296616 4.651230
-212.159988 20.297623 4.862625
-212.156021 20.297226 5.075912
-212.163071 20.296219 5.293900
-212.156113 20.297226 5.718338
-212.140030 20.295700 5.506729
-211.889633 20.697495 5.927505
-210.357620 23.327621 4.905594
-210.730789 22.723557 4.655655
-210.073227 21.588943 7.113998
-210.218155 21.389420 7.010574
-209.054153 25.088242 5.274582
-209.044327 25.086929 6.326675
-210.965652 21.893143 12.384079
-211.247482 19.789017 10.902206
-211.115860 19.986282 10.970474
-212.009842 20.710464 10.200089
-212.009689 20.284500 10.834976
-209.800034 21.983444 10.962204
-210.062363 21.587540 10.919113
-211.752457 20.685287 10.614731
-210.978226 20.185806 10.994888
-210.843704 20.384598 10.899796
-211.320480 21.072098 10.957474
-210.502579 21.632797 10.731583
-210.022385 21.370773 10.814041
-210.951401 20.820908 11.008316
-210.189835 23.100815 10.655319
-210.467209 22.698044 10.583511
-210.714798 22.292465 10.730179
-210.585495 22.494003 10.627579
-210.581100 22.493515 10.839890
-210.321579 22.900192 10.725266
-210.441971 22.913315 10.518967
-210.448105 22.695969 10.794968
-210.074722 23.298935 10.616837
-210.193649 23.101242 10.867996
-210.055649 23.296799 10.826584
-208.635788 23.560074 10.804184
-209.416885 22.584763 10.955002
-209.677170 22.182663 10.888962
-209.554184 22.383804 10.998520
-209.295120 22.788437 10.886124
-209.808914 23.692551 10.653488
-209.936111 23.494553 10.645889
-209.935410 23.494431 10.856491
-209.032089 23.183243 10.985153
-208.647720 23.772659 10.934097
-210.303513 22.898117 12.425369
-209.031876 24.874496 12.406235
-208.149368 24.558151 10.998550
-208.026077 24.754959 10.876999
-209.170700 24.678696 10.628891
-209.052475 24.877121 10.719467
-209.179581 24.679733 10.841965
-208.277481 24.361557 10.906754
-209.555435 24.086716 12.368362
-207.395828 27.634140 4.593094
-192.899887 21.199478 4.724442
-192.902634 21.199753 4.917557
-193.065842 21.018723 4.783737
-207.274643 27.828995 4.504440
-207.399155 27.634567 4.802689
-207.397018 27.634232 5.219650
-207.400345 27.634720 5.012283
-205.156815 31.119766 4.531723
-205.309830 31.144455 4.743057
-205.407761 30.947922 4.576492
-205.550949 30.763474 4.645798
-205.560043 30.764816 4.853409
-205.388931 30.945084 4.989700
-205.398117 30.946457 4.781937
-205.174728 31.337936 4.653030
-205.186935 31.339798 4.860458
-205.416977 30.949295 5.198410
-206.663376 28.586746 6.886459
-205.392685 30.739670 6.720108
-204.521988 30.186905 7.139114
-206.011398 29.547836 12.423904
-207.426590 27.850723 9.746170
-206.132858 27.676926 10.935196
-207.401291 27.635971 10.041489
-207.388687 27.634262 10.460739
-207.259750 27.828262 10.579788
-207.136795 27.811722 10.783249
-206.007431 27.863754 10.960220
-205.635300 30.350266 9.675217
-206.074356 29.988632 10.463913
-207.038986 28.431290 10.145798
-207.304153 28.039200 10.398117
-207.036331 28.002975 10.595657
-207.027512 28.001755 10.803452
-206.796310 28.818649 10.381210
-206.892715 28.411179 10.560013
-206.911758 28.203903 10.854691
-206.770432 28.394363 10.760910
-206.654007 28.586838 10.647934
-206.611954 28.792953 10.583115
-206.663651 28.588150 10.857834
-206.529953 28.781509 10.786301
-206.394516 28.972641 10.669571
-204.890701 29.600906 10.934982
-205.215500 28.807114 10.816605
-205.764175 28.256149 10.919296
-205.507919 28.639053 10.941116
-205.766983 29.943863 10.655258
-205.267410 29.023026 10.958542
-205.012222 29.404648 10.909195
-205.776596 29.945236 10.864426
-204.642380 29.994217 10.969925
-205.887131 28.064224 11.008041
-205.641861 28.446793 11.012527
-204.762131 29.797592 11.018509
-204.104416 31.382004 10.933212
-205.577927 30.768661 10.474380
-205.647476 30.141556 10.606613
-205.514236 30.334366 10.709091
-205.625259 30.350693 10.507736
-205.645798 30.141281 10.815109
-205.268021 30.722244 10.665909
-205.432632 30.533615 10.588516
-205.162399 30.912155 10.594101
-205.398788 30.528549 10.792892
-205.266739 30.722061 10.874985
-205.150009 30.910263 10.803970
-204.144882 30.758804 10.955917
-204.392532 30.378983 10.947403
-204.032639 30.951645 10.914597
-205.132980 31.118607 10.559402
-205.021408 31.101639 10.761765
-204.889511 31.295395 10.668167
-204.264389 30.572006 11.030014
-202.965591 31.821487 10.933517
-203.880783 31.141312 10.823288
-203.895493 31.143539 11.031754
-224.214981 59.589737 19.108170
-217.830338 57.657730 5.117477
-212.073471 47.350143 4.472427
-212.073227 47.350082 4.692429
-212.066635 47.348618 4.909897
-216.379227 47.860458 9.116226
-216.367477 47.857834 9.340439
-216.611588 47.456650 9.196091
-216.365372 47.857346 9.562576
-216.745773 47.257034 9.722855
-216.749374 47.257797 10.169937
-216.631760 47.460953 10.311020
-211.826645 47.517258 12.430984
-212.433975 46.765823 8.896774
-212.547440 46.566269 8.804001
-212.436356 46.766312 9.114914
-212.438309 46.766739 9.333054
-212.553879 46.567581 9.679276
-212.434647 46.765884 9.549118
-212.440811 46.767197 9.985611
-212.050461 47.346207 9.697250
-212.470901 47.440048 10.366776
-213.109177 46.464096 10.434738
-212.555191 46.567795 10.554733
-212.733353 47.053879 10.492355
-212.602646 47.246964 10.467545
-212.063461 47.349045 10.564896
-211.719620 45.040970 8.894424
-211.709396 45.038773 9.110977
-211.187759 44.706711 9.453415
-210.684616 44.377487 9.430222
-210.681625 44.376816 9.863968
-211.726944 45.042496 9.326859
-211.716751 45.040298 9.543442
-211.726242 45.043655 9.978012
-211.816208 47.735367 8.997879
-211.799332 47.731583 8.781479
-211.804733 47.732712 9.430496
-211.804031 47.732529 9.865311
-211.710648 45.040329 10.194351
-210.691574 44.378891 10.082443
-210.688766 44.378281 10.298264
-210.478500 44.333969 10.719559
-211.845169 45.518723 10.718216
-211.966629 45.318558 10.727127
-211.719559 45.715714 10.800705
-211.588669 45.909164 10.892715
-209.432632 44.555618 10.729019
-209.300552 44.748520 10.806046
-209.551437 44.360184 10.886642
-211.441879 46.100540 10.787338
-202.971573 33.702316 4.670395
-202.976242 33.703079 4.876572
-203.098740 33.509750 4.506638
-203.589401 32.743149 4.523788
-203.629013 32.749466 5.146164
-202.977341 33.703262 5.082657
-203.506332 39.694046 5.192062
-203.009872 39.382431 5.133987
-202.117203 33.138382 10.953659
-203.234482 33.106186 10.661636
-203.241043 33.107254 10.866104
-203.361435 32.915359 10.644791
-203.361649 32.915390 10.851578
-202.502060 32.569260 10.872665
-202.846512 32.006119 10.987778
-202.609787 32.378891 10.988235
-203.110703 33.301285 10.801895
-217.695236 57.389175 5.200272
-217.931046 57.451340 5.431656
-217.535934 57.812057 5.888870
-218.184891 57.982956 4.550186
-218.200027 57.988541 4.776535
-217.954056 57.457382 5.656601
-217.984116 57.465256 5.883194
-217.289047 58.204117 5.916458
-218.009689 57.472000 6.109726
-218.043320 57.480850 6.336563
-218.073380 57.488754 6.564774
-218.110397 57.498459 6.790482
-218.171616 57.514542 7.469254
-216.141556 59.995041 6.058609
-217.014664 58.841873 6.895950
-216.984940 58.833847 6.669815
-216.640274 59.208694 6.007736
-217.036392 58.847763 7.121933
-217.534897 58.271408 7.949814
-217.091660 58.862747 7.574478
-221.851273 49.534225 13.334457
-217.447678 48.778458 9.181503
-217.433395 48.775162 10.294144
-210.452621 49.652542 12.428787
-210.873184 51.313126 9.799026
-211.551895 51.708328 9.307053
-211.474869 51.689438 9.740341
-213.802689 53.171188 9.691177
-212.065811 52.063797 9.701340
-213.216171 52.803207 9.768906
-209.829117 50.611252 12.425674
-215.035446 54.385391 12.265762
-218.653488 57.876816 12.389999
-217.934921 57.685287 8.053391
-218.291641 58.012772 9.980637
-216.790115 59.483932 8.192642
-217.562698 58.278854 8.176498
-217.602219 58.289413 8.405533
-217.617630 58.293533 8.630112
-217.644302 58.300674 8.856979
-217.262314 58.908981 8.928787
-217.031448 59.086166 8.127640
-217.293472 58.917404 9.153122
-217.664291 58.306046 9.085434
-217.702774 58.316330 9.312943
-217.738419 58.325882 9.540451
-217.786911 58.338852 9.994675
-217.761459 58.332047 9.765671
-217.347641 58.932083 9.606979
-217.383011 58.941666 9.839615
-218.068802 57.953537 10.196732
-218.212021 57.760086 10.328781
-218.229355 57.764664 10.553818
-218.259964 57.772751 10.783981
-218.320938 57.788864 11.240128
-218.294083 57.781784 11.009995
-218.353561 57.797501 11.468430
-218.369797 57.801773 11.693771
-218.401993 57.810287 11.922226
-218.384720 58.039078 10.667221
-218.398453 58.042709 10.892075
-218.425034 58.049759 11.120132
-218.846725 58.390945 11.063950
-218.479202 58.064163 11.349686
-218.908218 58.407333 11.518600
-218.008316 58.399582 11.814133
-217.176590 59.357346 10.310074
-217.406693 58.948074 10.063950
-217.818161 58.347214 10.222214
-217.839340 58.352890 10.447586
-217.432999 58.955215 10.293747
-217.875504 58.364029 10.673752
-217.906052 58.372208 10.901505
-217.479996 58.967911 10.748001
-217.465775 58.964096 10.521286
-217.547043 58.986099 11.203568
-217.924240 58.377060 11.126938
-217.961899 58.387131 11.355209
-217.984726 58.393265 11.582809
-217.183670 59.591721 11.365158
-217.599106 59.000168 11.658707
-217.627487 59.007858 11.886520
-217.210281 59.599014 11.591629
-217.239120 59.606918 11.820328
-216.792435 60.408493 10.213760
-218.677414 57.884720 12.616287
-218.708817 57.893021 12.843033
-218.739517 57.901108 13.074265
-218.764359 57.907669 13.300797
-218.790237 57.914505 13.529709
-218.851578 57.930710 13.994949
-218.826614 57.924118 13.765945
-218.199112 58.218094 12.392654
-218.920212 58.410507 12.201431
-218.571518 58.088638 12.259781
-218.930527 58.414780 12.889236
-219.218002 58.260422 13.434708
-218.940811 58.417496 13.343399
-217.268234 59.614883 12.049118
-217.966202 58.623947 12.377335
-217.836227 58.824020 12.440933
-217.290756 59.621048 12.273544
-217.653091 59.014786 12.114273
-217.572189 59.233200 12.442398
-217.690201 59.024857 12.342758
-217.713943 59.031265 12.570541
-217.742630 59.039047 12.798721
-217.355850 59.638870 12.735947
-217.324600 59.630325 12.506790
-217.378281 59.645035 12.962601
-217.401962 59.654099 13.189468
-217.794693 59.053116 13.249741
-217.770859 59.046677 13.026962
-217.827194 59.061935 13.478409
-217.430191 59.661850 13.418655
-217.860001 59.070816 13.709793
-217.879959 59.076218 13.935226
-217.467239 59.669388 13.646408
-217.495132 59.677017 13.873703
-218.346268 58.490005 14.556168
-218.866837 58.397629 15.613968
-218.015030 59.115524 15.081650
-218.053970 59.126083 15.311508
-218.084671 59.134384 15.540878
-218.135086 59.148026 15.999100
-218.110153 59.141281 15.767319
-217.522476 59.684494 14.103073
-217.915787 59.085922 14.164383
-217.949570 59.097824 14.396164
-217.967545 59.102676 14.624344
-217.994217 59.109909 14.853165
-217.708023 59.504593 14.635544
-216.923904 60.213394 12.397476
-216.952469 60.221329 12.625107
-216.980362 60.229050 12.852798
-217.013412 60.238205 13.080856
-217.079941 60.256638 13.535507
-216.883255 60.904739 14.977005
-217.628128 60.410141 15.843033
-216.909256 60.912033 15.205978
-216.936295 60.919601 15.433395
-216.961716 60.929031 15.662521
-216.994888 60.938339 15.890549
-217.945053 59.569290 16.469406
-217.913773 59.560715 16.694382
-218.157364 59.154037 16.228104
-218.197922 59.165024 16.455948
-218.689255 58.350204 16.281204
-218.317734 59.438461 16.350479
-218.870224 58.631638 18.238205
-220.300949 63.073349 16.905838
-220.351578 63.324081 16.805435
-216.688736 61.564682 16.613571
-216.728806 61.576065 16.840775
-217.033249 60.949112 16.119034
-217.577988 60.164841 16.619431
-217.959000 60.038284 16.506393
-217.108261 60.970108 16.805496
-216.981979 61.170609 16.863724
-216.623093 61.784805 17.006363
-216.717545 62.047409 16.857651
-216.341965 62.171768 17.176926
-94.176285 -56.455643 2.717453
-183.253128 -3.277420 3.897110
-190.236557 -14.100113 4.317703
-189.967667 -13.698929 4.306259
-189.907516 -13.503616 4.369278
-164.568832 -15.526596 3.801865
-151.219437 -3.158920 3.507065
-156.020554 -4.349350 2.406998
-156.224350 -4.508255 2.458481
-155.942001 -4.195114 2.483597
-155.751053 -4.035690 2.406570
-155.868393 -4.037704 2.564468
-156.518112 -0.446030 2.589584
-156.578232 -0.131973 2.692886
-157.005844 -1.076309 2.718857
-156.590225 -0.444778 2.904282
-156.749924 -0.761093 2.699478
-156.681259 -0.762253 2.541428
-156.629807 -0.601822 2.681778
-156.568710 -0.603073 2.524002
-156.742508 -0.602219 2.997513
-156.670029 -0.601944 2.839279
-157.361526 -1.237595 3.169510
-157.801682 -1.710556 3.211594
-157.549271 -1.395309 3.227646
-157.251572 -1.077988 3.194290
-156.645401 -0.288132 3.151810
-156.989853 -0.762253 3.175217
-156.852707 -0.602646 3.156631
-156.674637 -0.445023 3.062698
-156.745438 -0.130661 3.166611
-154.060349 -2.131027 2.406021
-154.707352 -2.923111 2.412552
-155.171219 -3.400436 2.486954
-155.621902 -3.878952 2.454666
-155.604935 -3.880051 2.298599
-155.440964 -3.720078 2.401535
-155.317673 -3.560318 2.450912
-155.532425 -3.722275 2.560562
-155.529648 -3.406784 2.958481
-155.388290 -3.247513 2.981430
-154.858414 -3.081924 2.458145
-155.013718 -2.772385 2.986130
-154.559952 -2.764297 2.358414
-154.597794 -2.764969 2.513748
-154.780289 -2.924484 2.568619
-154.224930 -2.286392 2.542465
-154.395126 -2.288925 2.699265
-154.327164 -2.133255 2.719193
-154.131332 -2.130539 2.563004
-155.338791 -2.302872 3.028122
-154.715378 -0.907944 2.613480
-154.005356 -1.365402 2.386429
-154.189377 -1.214157 2.488205
-154.016037 -1.822372 2.567337
-154.055099 -1.515549 2.620926
-154.094223 -1.364761 2.541489
-154.302780 -1.213577 2.643112
-154.371170 -1.059677 2.519852
-153.942398 -1.974228 2.367905
-153.960739 -1.516098 2.464157
-143.112381 -5.858932 2.849869
-94.255539 -56.377548 2.706833
-94.178787 -56.457077 2.937424
-94.183762 -56.460098 2.827621
-94.177353 -56.456161 3.157272
-94.179184 -56.457291 3.047379
-94.235580 -56.365524 3.037125
-94.188156 -56.462540 3.485550
-94.170639 -56.452103 3.267014
-94.258530 -56.379166 3.255875
-94.255325 -56.377213 3.364792
-77.221146 -48.861160 2.997299
-76.991898 -49.142410 2.141556
-76.924332 -49.207565 2.157303
-76.919937 -49.204788 2.065750
-77.316971 -49.028152 2.995193
-77.111343 -48.791672 3.084427
-77.028824 -48.845383 3.075394
-96.427231 -6.952713 4.412003
-114.862442 -18.559402 1.876511
-115.699600 -19.284042 1.814590
-115.493607 -19.013260 2.044296
-96.738937 -6.877914 4.167221
-108.719437 -13.233353 2.181168
-96.023270 -12.366501 7.387802
-100.189713 -8.435410 1.709091
-100.107834 -8.329086 1.729630
-100.091141 -8.226913 1.682144
-100.457077 -8.760818 1.594162
-100.431076 -8.655319 1.703873
-100.128586 -8.129898 1.659470
-100.174606 -8.032486 1.677048
-100.159439 -8.031296 1.576218
-100.210220 -8.337570 1.933884
-100.153244 -8.332840 1.832169
-100.154831 -8.132034 1.761642
-100.403824 -10.895218 3.854294
-100.456955 -8.457901 2.116470
-100.295853 -8.344711 2.035141
-100.383499 -8.150589 2.167862
-100.439499 -8.053726 2.183212
-97.952805 -10.127762 1.697220
-97.965286 -10.129044 1.893936
-97.972427 -10.230972 1.878616
-97.963089 -10.128799 1.992538
-97.973404 -10.231064 1.978043
-97.961044 -10.128586 1.796005
-99.725876 -9.109634 1.985733
-98.068649 -10.042007 2.650528
-99.072891 -11.248367 3.452591
-99.977524 -11.555893 3.802811
-98.186234 -10.252609 3.959122
-97.966354 -10.230301 2.174332
-97.959396 -10.128403 2.190506
-97.958878 -10.128372 2.091843
-97.982315 -10.231979 2.076859
-97.973801 -10.129898 2.387405
-97.949661 -10.127396 2.288925
-97.964615 -10.230118 2.273697
-97.979172 -10.230423 2.372665
-97.980118 -10.130539 2.486252
-97.993759 -10.231949 2.472458
-97.974533 -10.129959 2.681961
-97.972153 -10.229691 2.668381
-97.973740 -10.129898 2.583237
-97.984940 -10.231033 2.570084
-97.987900 -10.231308 2.767471
-97.960464 -10.229691 2.864548
-97.923264 -10.124680 2.778427
-97.236038 -11.039841 3.293045
-97.543686 -11.074783 3.007584
-96.488846 -10.173813 3.179489
-96.490585 -10.173965 3.373947
-98.909653 -8.129807 2.653854
-99.225266 -9.260971 2.421707
-99.455765 -9.582199 2.382736
-99.557114 -9.194382 2.145126
-99.823074 -9.118484 2.188370
-99.629196 -9.201065 2.046829
-99.172897 -9.356033 2.491653
-99.251358 -9.364059 2.392715
-99.389236 -9.575760 2.678726
-99.071671 -9.545181 2.770645
-98.912338 -9.430252 2.755417
-99.145706 -8.050095 2.737686
-99.353043 -8.166245 2.765610
-98.662338 -8.405106 2.813980
-98.643784 -8.305252 2.772141
-98.960526 -8.331924 2.880508
-98.991074 -8.037552 2.835098
-99.383469 -9.475052 3.968887
-98.301437 -9.371933 3.628769
-98.484573 -8.893936 3.404922
-98.364365 -8.780716 3.444321
-98.334305 -8.778030 3.937973
-96.279160 -8.396408 2.784256
-97.641953 -9.113174 2.578720
-96.240952 -9.272415 2.884384
-96.662125 -9.701920 2.695572
-96.606827 -9.892319 2.903763
-96.608475 -9.892471 2.806534
-96.398392 -9.579361 2.654495
-96.294205 -9.664993 2.588364
-96.219742 -9.657516 2.973801
-97.051834 -8.463821 2.612015
-97.534622 -8.909439 2.627640
-97.476089 -8.500809 2.721451
-97.781509 -8.135483 2.867325
-96.272781 -8.296921 2.794479
-96.698715 -8.930374 2.667465
-96.771561 -8.538834 2.687027
-96.723190 -8.734879 2.857285
-96.067429 -8.966202 2.730453
-96.156052 -8.974442 2.926498
-96.052170 -8.870682 2.843033
-96.375137 -8.703445 2.944473
-96.286118 -8.595200 2.885086
-96.724686 -8.240036 2.856461
-96.837448 -8.056931 2.936966
-97.141556 -9.066422 3.151230
-96.572800 -9.304367 3.284622
-97.221939 -8.088913 3.241837
-97.817978 -8.040085 3.412216
-97.870468 -8.044388 3.315659
-97.137772 -8.178452 3.411697
-96.328537 -8.499741 3.448563
-96.394852 -8.996719 3.030746
-96.952408 -8.355515 3.008255
-96.760788 -8.146713 3.010178
-96.887344 -8.157364 3.111496
-96.640335 -8.136581 3.199905
-96.740921 -8.048904 3.129654
-96.520065 -8.318222 3.383102
-96.837845 -8.056961 3.424881
-96.778366 -8.148178 3.301773
-96.607224 -8.133774 3.490219
-96.746140 -8.049332 3.324356
-96.195358 -8.194931 3.516037
-96.158493 -8.191788 3.611130
-96.083633 -8.089706 3.569595
-96.439072 -8.119614 3.970779
-97.236740 -12.919876 7.258286
-98.610275 -12.699631 7.886063
-100.866013 -8.392105 4.074539
-100.470291 -8.257156 4.716415
-101.241806 -9.652176 4.856979
-100.448502 -9.374893 5.180161
-100.394791 -9.976425 5.291794
-100.377762 -9.063919 5.492050
-100.419815 -9.573746 5.831863
-100.260056 -9.053268 5.687057
-100.059921 -9.035202 5.776230
-100.724380 -10.108719 6.259598
-100.014786 -10.037521 7.631699
-100.477768 -8.968460 6.554764
-100.233475 -9.255783 6.903244
-100.651901 -9.193192 6.969955
-100.036667 -9.335403 6.772751
-100.012039 -8.823929 7.005478
-96.864548 -11.096512 4.200363
-98.819107 -10.017868 4.299026
-97.001236 -11.013168 4.066971
-98.528519 -8.794449 4.736923
-98.967911 -9.933334 4.453323
-98.502365 -9.886612 4.632004
-98.580093 -9.796097 4.798203
-99.835617 -8.004349 4.477066
-98.529190 -8.392929 5.883957
-96.780716 -8.840530 4.359268
-97.156143 -9.751480 4.077011
-96.084763 -9.548141 4.870682
-96.230118 -8.490250 4.996078
-96.781570 -8.147568 4.666611
-96.991653 -8.069748 4.600082
-96.689102 -8.043655 4.877731
-96.603897 -8.132614 4.754471
-96.236557 -8.292923 4.826828
-96.534439 -9.591965 5.770187
-97.376541 -8.100845 5.107407
-97.516098 -8.306625 5.723984
-97.232224 -8.088852 5.982651
-97.442123 -8.106308 5.897324
-96.156754 -8.384811 5.394211
-96.102036 -8.577866 5.299088
-96.491501 -8.612625 5.417831
-96.870865 -8.155106 5.156906
-96.188370 -8.486557 5.380447
-96.254959 -8.393387 5.497360
-96.166336 -8.975174 5.733078
-96.116135 -8.778915 5.975967
-96.097641 -8.379654 5.777206
-96.192581 -8.486954 5.768539
-98.708511 -10.204727 6.085526
-99.706924 -10.717728 6.803421
-96.161026 -10.237381 6.146072
-97.629166 -10.093124 6.117691
-97.527512 -10.082626 6.504288
-96.008713 -10.417343 6.592667
-96.228958 -10.145309 6.861191
-96.441330 -11.343399 7.941116
-96.778915 -11.085739 7.522354
-96.746414 -11.481430 7.783310
-96.393173 -11.140610 7.953293
-96.358017 -11.136551 7.852676
-97.338577 -10.658646 7.499283
-96.076126 -10.030472 7.851608
-96.494888 -10.954697 7.947098
-96.397781 -10.846848 7.815445
-96.620438 -10.286301 7.737137
-96.699631 -10.394485 7.869766
-98.103653 -8.453842 6.499954
-99.046066 -9.742142 6.250229
-98.977982 -9.834763 6.015060
-98.036911 -9.247543 6.511429
-99.700089 -8.094284 6.363693
-99.985977 -8.821640 6.197678
-99.316483 -8.660355 6.471664
-99.096176 -8.441238 6.617050
-98.329666 -8.675491 6.191849
-98.039780 -8.750839 6.492325
-98.907913 -8.326645 6.961349
-98.202713 -8.365128 6.953751
-98.361984 -8.476120 6.915054
-98.352951 -8.182083 6.943344
-99.225662 -9.359665 7.091446
-99.608444 -9.897415 7.561600
-99.136520 -9.450363 7.658707
-98.862503 -9.325424 7.265305
-98.487167 -9.687180 7.706894
-98.170029 -9.260117 7.610336
-98.409317 -9.381027 7.902115
-98.023178 -9.245621 7.895309
-99.102066 -8.143845 7.049088
-99.683914 -8.291885 7.237381
-99.821365 -8.202957 7.201004
-99.860123 -8.006393 7.194992
-99.872238 -8.307541 7.351913
-99.850113 -8.105576 7.380630
-99.649918 -8.089340 7.467575
-99.592880 -8.084702 7.261093
-99.622482 -8.385880 7.715805
-99.842392 -8.306015 7.552536
-99.819351 -8.202805 7.602951
-99.704391 -8.093765 7.571213
-99.620316 -8.286606 7.939468
-99.603104 -8.484451 7.756485
-99.625381 -8.287033 7.838058
-98.263809 -8.271500 7.014328
-98.393997 -8.381454 7.264877
-98.529587 -8.392990 7.572220
-98.668594 -8.404861 7.781448
-96.261581 -8.692215 6.139694
-97.355698 -9.280685 6.144150
-97.993790 -9.341507 6.282394
-97.407333 -9.285629 6.050003
-97.316177 -9.179550 6.365311
-97.393906 -9.088760 6.986771
-96.171127 -9.459366 6.457230
-96.304825 -9.860428 6.193649
-96.330826 -9.764725 6.329330
-96.224350 -9.561142 6.333389
-96.818375 -9.035080 6.163681
-96.932266 -9.045700 6.268814
-96.248550 -9.854691 6.871872
-96.425003 -9.677231 6.967697
-96.103348 -9.549118 6.908249
-96.650803 -9.213455 6.586655
-96.603165 -9.112289 6.513748
-96.668167 -9.118423 6.615738
-96.142319 -9.456528 6.649521
-97.241440 -8.186325 6.451584
-97.720169 -8.722305 6.077957
-97.818985 -8.529770 6.275375
-97.533890 -8.308151 6.217178
-97.385849 -8.101639 6.383774
-97.603439 -8.510971 6.557053
-97.974533 -8.745041 6.586899
-97.116959 -8.769455 6.683273
-97.242783 -8.979599 6.501328
-97.155563 -8.772934 6.588211
-97.336136 -8.587845 6.621506
-97.193008 -8.675278 6.632462
-97.207626 -8.576492 6.513504
-97.189499 -8.974686 6.791519
-97.027786 -8.862167 6.816055
-97.481369 -8.701004 6.750534
-97.484756 -8.701309 6.849197
-97.246872 -8.283707 6.689041
-97.269211 -8.381943 6.641861
-97.180038 -8.374252 6.733871
-97.145279 -8.471024 6.624313
-96.980392 -8.067886 6.552841
-96.555283 -8.518967 6.958328
-96.630508 -8.725510 6.844193
-96.478867 -8.812057 6.971481
-96.657455 -8.427567 6.981461
-97.022934 -9.054123 7.059036
-97.809402 -9.914597 7.314987
-97.450516 -9.682999 7.496719
-97.899979 -9.234634 7.095627
-97.563553 -9.202896 7.267410
-97.077408 -9.547592 7.793015
-97.285965 -9.665787 7.878586
-97.678177 -9.311356 7.644821
-97.821732 -9.128647 7.512924
-97.672714 -9.212570 7.670547
-97.666672 -9.114151 7.893295
-97.746933 -9.219559 7.775253
-96.016342 -9.443222 7.028091
-96.576187 -9.984299 7.026474
-96.798782 -9.911026 7.302780
-96.699326 -9.997025 7.329208
-96.909683 -9.725876 7.491745
-96.255753 -9.951157 7.100601
-96.292648 -9.760849 7.007309
-96.324844 -9.764114 7.107193
-96.254562 -9.855301 7.067001
-96.065567 -9.737839 7.379929
-96.695724 -9.607986 7.733322
-96.896133 -9.627914 7.648666
-96.593826 -9.889114 7.971786
-96.747665 -9.709641 7.968857
-96.109940 -9.840500 7.542618
-96.362839 -9.767990 7.791824
-96.385666 -9.673294 7.840408
-96.983261 -9.050400 7.545120
-97.869308 -8.336746 7.422226
-97.120438 -8.667892 7.020889
-97.333939 -8.587662 7.112747
-97.586746 -8.912308 7.741898
-97.068893 -8.764175 7.562851
-97.130356 -8.668808 7.609329
-97.104446 -8.767410 7.762711
-97.055740 -8.863815 7.797928
-97.081375 -8.464554 7.698227
-96.543716 -8.417648 7.167679
-96.702866 -8.929764 7.148972
-96.576309 -8.720627 7.134140
-96.539536 -8.717300 7.229324
-96.910294 -8.850540 7.394333
-96.876694 -8.945786 7.258011
-96.866837 -8.943954 7.354965
-96.935593 -8.852829 7.494247
-96.542923 -8.318466 7.177994
-96.963852 -8.454300 7.296860
-96.972672 -8.953720 7.559464
-96.917404 -8.851181 7.590805
-96.997849 -8.457260 7.593552
-96.955002 -8.353989 7.598709
-96.805710 -6.979996 4.038254
-100.245834 -7.935593 1.716843
-100.208298 -7.932632 1.616287
-100.296707 -7.836990 1.715958
-100.356827 -7.740158 1.704239
-100.448807 -7.646164 1.745560
-96.837326 -7.959488 2.988602
-99.175613 -7.850876 2.894058
-99.013046 -7.939346 2.849930
-99.118851 -7.846390 2.792801
-99.303513 -7.759354 2.896774
-99.393082 -7.665878 2.785812
-99.173019 -7.749161 2.793289
-99.331833 -7.362381 3.152298
-99.233566 -7.255661 3.297592
-99.210983 -7.154312 3.343552
-99.050919 -7.539780 3.810043
-98.567795 -7.206985 3.474258
-98.256149 -7.282669 3.512009
-99.186783 -6.755539 3.443802
-99.310501 -6.863693 3.382339
-99.348648 -6.965530 3.341385
-99.386673 -6.868942 3.283310
-99.175552 -6.854385 3.576401
-99.255356 -6.760208 3.545883
-96.840073 -7.765091 2.982010
-97.006271 -7.876389 3.264664
-97.135361 -7.689377 3.613541
-96.745865 -7.461716 3.097885
-96.729691 -7.853928 3.061966
-96.785782 -7.760757 3.174911
-96.762558 -7.953323 3.083572
-96.805283 -7.663254 3.115372
-96.756210 -7.560318 3.017593
-96.707596 -7.655502 3.015732
-96.660782 -7.750717 3.365799
-96.598648 -7.548019 3.301956
-96.117386 -7.997025 3.496048
-96.702560 -7.264511 3.106705
-96.813492 -7.466934 3.392746
-96.801804 -7.271988 3.401718
-96.604477 -7.353561 3.425034
-96.668411 -7.261948 3.299881
-96.601273 -7.940079 3.758347
-96.772354 -7.856522 3.936813
-96.638290 -7.943130 3.858017
-96.688431 -7.849686 3.837234
-96.626297 -7.747971 3.849106
-96.155960 -7.807358 3.719406
-96.087326 -7.994522 3.591568
-96.167313 -7.808273 3.526443
-96.002823 -7.794937 3.615891
-96.056686 -7.702286 3.633224
-96.913162 -7.086014 3.707321
-96.948410 -7.088577 3.612015
-96.887070 -7.375076 3.823563
-96.619614 -7.258316 3.881973
-96.676559 -7.456406 3.777451
-96.822372 -7.079391 3.897690
-96.717453 -7.071732 3.991440
-96.628403 -7.162033 3.842270
-96.435074 -7.340652 3.516068
-97.160141 -6.812088 3.561783
-97.033920 -6.997330 3.853928
-96.947800 -6.893631 3.688980
-96.893417 -6.793411 3.649948
-96.902878 -6.794083 3.747086
-96.794662 -6.979202 3.553238
-96.769852 -6.880997 3.975143
-96.957993 -6.797928 3.846634
-96.868484 -6.985397 3.944107
-96.848740 -6.790268 3.939621
-96.948380 -6.603104 3.854080
-96.732407 -6.685532 3.973740
-96.763474 -6.784317 4.033401
-98.180984 -6.785660 4.428055
-98.791702 -7.023880 4.356186
-98.652908 -7.014023 4.548477
-98.977585 -7.136642 4.927444
-98.051041 -7.365860 4.627518
-98.498337 -6.905960 4.402725
-98.292953 -6.891556 4.294724
-98.641800 -6.916031 4.904434
-98.757126 -6.825516 4.948837
-98.105911 -6.975113 4.620743
-98.353867 -6.797623 4.732559
-98.055435 -6.776993 4.619003
-98.097336 -6.581894 4.614639
-98.129410 -6.584061 4.517502
-98.436844 -6.504135 4.899216
-98.459366 -6.606216 4.831680
-98.190140 -6.687729 4.888199
-98.203720 -6.488724 4.788864
-98.421555 -6.404160 4.954330
-98.473648 -6.407547 4.857925
-98.415726 -6.305191 4.928848
-99.165329 -7.647507 5.071579
-98.511124 -7.103012 5.498306
-98.095444 -7.664078 5.128738
-98.237534 -7.575943 5.121292
-98.675064 -7.510391 5.979996
-98.680801 -7.313339 5.710770
-98.890396 -7.328873 5.623306
-98.655380 -7.113449 5.703751
-98.583786 -7.108292 5.798264
-98.591995 -6.415268 5.061478
-98.670364 -6.819534 5.044357
-98.750565 -6.725906 5.015396
-98.760361 -6.525528 5.014633
-98.663589 -6.619919 5.040146
-98.166367 -6.979446 5.019791
-98.415176 -6.801895 5.428604
-98.338303 -6.697159 5.490189
-98.008316 -6.675369 5.273453
-98.363998 -6.797623 5.525375
-97.997604 -6.674606 4.485611
-97.066238 -7.583633 4.488724
-97.522293 -7.326126 4.504440
-97.549362 -7.229446 4.959000
-97.259567 -7.402573 4.718246
-97.417343 -7.219650 4.854294
-96.413162 -7.435196 4.057968
-96.758163 -7.658646 4.476059
-96.165634 -7.611710 4.061661
-96.339859 -7.724075 4.030838
-96.016891 -7.891159 4.410721
-96.607132 -7.257370 4.171799
-96.827774 -7.079788 4.092575
-96.393723 -7.143784 4.219528
-96.405777 -7.144669 4.413956
-96.499161 -7.151596 4.321182
-96.404221 -7.048843 4.366165
-96.512283 -7.835403 4.507706
-96.668900 -7.848129 4.612289
-96.962265 -7.575516 4.679062
-96.821823 -7.762741 4.927872
-96.740707 -7.950638 4.930862
-96.748062 -7.951248 4.832779
-96.734360 -7.557724 4.766098
-96.432755 -7.925339 4.623917
-96.857559 -7.276199 4.667526
-96.873428 -7.373184 4.602676
-96.877609 -7.179642 4.629410
-96.955002 -7.185379 4.733688
-96.423996 -7.146042 4.510727
-97.992661 -6.674271 4.582779
-97.477524 -7.126633 5.198441
-97.592148 -7.724655 5.005753
-97.006363 -7.875534 5.021164
-97.539932 -7.423935 5.124283
-97.633835 -7.334549 5.099014
-97.549515 -7.033676 5.248306
-97.876816 -7.449600 5.340073
-97.807632 -7.248611 5.463272
-97.419754 -7.024307 5.143295
-97.343124 -7.018814 5.335770
-97.904343 -7.749405 5.907181
-97.158401 -7.789719 5.727219
-97.265121 -7.798294 5.831528
-97.636002 -7.431290 5.720016
-97.922653 -7.355515 5.705612
-97.636307 -7.431320 5.818527
-96.727890 -7.459549 5.237320
-96.875961 -7.961777 5.132828
-96.546432 -7.740646 5.108292
-96.868423 -7.961166 5.425125
-96.766647 -7.758316 5.412308
-96.759384 -7.855515 5.397049
-96.647903 -7.550980 5.442368
-96.676682 -7.455612 5.331863
-96.539474 -7.837662 5.676529
-96.535019 -7.933762 5.503708
-96.708054 -7.555679 5.543198
-96.551865 -7.935165 5.796555
-96.982224 -7.479172 5.544876
-97.965256 -6.770798 5.106857
-97.894058 -6.667587 5.169907
-98.851212 -6.930038 6.306564
-99.028915 -7.139511 6.423508
-98.217300 -7.475571 6.248093
-98.720871 -7.915024 6.117783
-98.626022 -7.806534 6.049423
-98.940628 -7.530594 6.195786
-98.600998 -7.603165 6.233383
-98.671341 -7.312668 6.007278
-98.670303 -7.311691 6.304398
-98.931412 -7.033005 6.452469
-98.545975 -7.006516 6.328018
-98.337479 -7.189560 6.135361
-98.387680 -7.193253 6.237595
-98.444077 -7.394730 6.429214
-98.466660 -7.296616 6.390610
-98.137650 -7.469498 6.342117
-98.496078 -7.101089 6.289108
-98.791733 -7.617905 6.643753
-98.784073 -7.121872 6.904861
-99.124466 -6.949203 6.523758
-98.894577 -6.834335 6.350143
-98.916336 -6.736588 6.317978
-99.704483 -7.992966 7.586472
-99.768509 -7.896103 7.630722
-99.775070 -7.794449 7.729141
-99.868912 -7.801773 7.837997
-98.877792 -7.927628 7.024429
-96.992569 -7.776474 6.597549
-97.138992 -7.983414 6.125565
-97.726486 -7.835281 6.154037
-97.752823 -7.837387 6.254227
-97.137039 -7.983261 6.027512
-97.277817 -7.994827 6.232376
-97.487564 -7.914658 6.320755
-97.088638 -7.881393 6.587570
-97.002762 -7.971298 6.605057
-96.276688 -12.106155 8.266891
-98.756149 -12.018356 9.274460
-100.053207 -8.422165 8.051590
-100.313492 -8.952927 8.367111
-100.077652 -9.540054 8.237656
-96.913071 -10.019150 8.129745
-98.345596 -10.267410 8.933365
-98.337784 -11.264328 8.341202
-98.104477 -11.642624 8.490707
-98.779282 -11.722733 8.948502
-98.850235 -11.122818 8.917007
-98.157974 -11.143539 8.682419
-98.415817 -11.374405 8.820023
-98.083572 -11.335983 8.889847
-98.498398 -11.181198 8.811630
-99.518661 -10.897385 8.071274
-99.396347 -10.683365 8.997604
-99.379440 -10.273026 8.738449
-98.133652 -10.943558 8.999649
-98.264877 -10.858170 8.949448
-98.207687 -11.350327 9.001633
-98.645737 -11.804520 9.194168
-98.691269 -11.910721 9.424362
-98.610214 -11.800278 9.491043
-98.642105 -11.705856 9.438217
-98.250961 -11.556290 9.186630
-98.236160 -11.657700 9.499283
-98.571671 -11.090500 9.490829
-98.813614 -11.216995 9.441208
-98.189682 -11.347336 9.098892
-98.324387 -11.161453 9.097336
-98.385941 -11.169418 9.003098
-98.207077 -11.248398 9.127396
-98.189255 -11.247330 9.025101
-98.040237 -11.030685 9.042953
-98.096756 -11.037064 9.146622
-98.040298 -11.030716 9.240524
-98.275681 -11.457809 9.433060
-98.347702 -11.466202 9.340775
-98.353958 -11.366318 9.313980
-98.401627 -11.371811 9.418503
-98.234451 -11.251541 9.429306
-98.118454 -11.138077 9.277634
-98.585861 -11.898026 9.514420
-98.643509 -11.804276 9.596481
-98.350143 -11.567978 9.896225
-98.309128 -11.563156 9.992203
-98.334488 -11.566147 9.795639
-98.899612 -11.327744 9.593643
-98.295120 -11.460068 9.634842
-98.297318 -11.460312 9.535843
-98.319595 -11.462936 9.838028
-99.006638 -10.234512 9.712387
-99.062210 -10.040756 9.919144
-99.001236 -10.034592 9.812332
-98.294510 -10.961502 9.114212
-98.320114 -10.864304 9.055191
-98.159500 -10.946457 9.301132
-98.995102 -10.839066 9.633926
-98.874619 -10.021744 9.699203
-96.866043 -10.112930 8.113205
-97.608231 -11.081100 8.335800
-97.029190 -11.906540 8.006851
-97.148544 -11.921188 8.610367
-96.372604 -11.335342 8.227798
-96.521591 -11.747482 8.377975
-96.714340 -11.573380 8.326950
-96.429092 -11.735153 8.467880
-96.728470 -11.079971 8.008530
-96.997147 -11.210434 8.297501
-96.428726 -11.144730 8.151047
-96.258041 -11.222549 8.067093
-96.119003 -11.305527 8.302689
-96.300674 -11.129929 8.434952
-96.245285 -11.024643 8.456589
-96.242325 -11.024307 8.261063
-96.771866 -11.874985 8.675308
-96.646378 -11.565262 8.714371
-96.658737 -11.566727 8.518478
-96.679367 -11.569199 8.619125
-96.787094 -11.974442 8.783951
-96.587173 -11.852310 8.757828
-96.682693 -11.473923 8.659439
-96.700668 -11.476028 8.565567
-97.176865 -10.345566 8.176987
-97.567398 -10.978439 8.305984
-97.813431 -10.211838 8.489914
-97.217636 -10.249557 8.407364
-97.656113 -10.988449 8.709793
-97.525162 -10.581955 8.671585
-97.161697 -10.639328 8.961960
-97.319046 -10.656540 8.778976
-97.254623 -10.552597 8.844925
-97.137009 -10.539841 8.932816
-97.167007 -10.736862 8.750717
-97.945755 -10.027542 8.778214
-97.207138 -10.048477 8.744797
-97.314713 -10.360245 8.880264
-97.073074 -10.333511 8.957291
-97.340836 -10.062302 8.955307
-96.660477 -10.390274 8.455704
-96.576614 -10.866959 8.026505
-96.544693 -10.863388 8.121384
-96.758286 -10.791092 8.481552
-96.764084 -10.692337 8.419571
-96.689468 -10.393387 8.262100
-96.864670 -10.312332 8.445450
-96.657272 -10.487778 8.300247
-96.705032 -10.881424 8.526474
-96.682724 -10.392685 8.555740
-96.854263 -10.211258 8.965408
-97.147995 -10.441696 9.187515
-97.853317 -10.912308 9.471909
-97.800125 -10.906357 9.367355
-97.956894 -10.824173 9.319748
-97.948380 -10.724472 9.432968
-97.023178 -10.527512 9.020859
-97.600632 -10.389664 9.302658
-97.132339 -10.240585 9.188370
-97.144424 -10.042007 9.133896
-97.229080 -10.150864 9.030045
-97.207870 -10.048569 9.041092
-97.078384 -10.434219 9.279556
-97.122147 -10.039719 9.329239
-97.762863 -10.999496 9.613144
-97.954086 -10.823868 9.518784
-97.078995 -10.334152 9.546707
-96.984299 -10.424118 9.073532
-96.906021 -10.610336 9.233841
-96.860947 -10.508926 9.399338
-96.887650 -10.413742 9.359756
-96.798111 -10.304245 9.322769
-96.985336 -10.224075 9.470901
-96.980179 -10.223526 9.369949
-96.742142 -10.592422 9.611954
-96.988907 -10.522812 9.511429
-96.876328 -10.607101 9.526505
-96.807175 -10.305222 9.619705
