-96.917374 -9.141342 8.494064
-96.635056 -9.795578 8.008286
-96.936691 -9.826157 8.229904
-96.516068 -9.58931 8.012405
-96.723892 -9.512833 8.058334
-96.884995 -9.722549 8.371689
-96.468399 -9.68074 8.238998
-96.951035 -9.632523 8.735519
-96.753616 -9.515762 8.648819
-96.755356 -9.515945 8.747025
-96.975052 -9.049545 8.723343
-96.953903 -9.144791 8.595505
-96.991379 -9.441299 8.950638
-96.975235 -9.244278 8.866318
-97.66243 -8.817764 8.004807
-97.66127 -8.817673 8.499039
-97.873032 -8.836807 8.319412
-97.806808 -8.729202 8.452652
-97.820084 -8.629776 8.335037
-97.908218 -8.536667 8.45784
-97.760208 -8.624496 8.427689
-97.728714 -8.722244 8.643784
-97.776627 -8.525192 8.643845
-97.653702 -8.715561 8.736038
-97.761124 -8.423477 8.651688
-97.845383 -8.43074 8.559189
-97.310349 -9.863174 9.152359
-97.331558 -9.964676 9.118118
-97.226944 -9.659927 9.15538
-97.217545 -9.953018 9.303879
-97.159348 -9.750107 9.282181
-97.21907 -9.659164 9.350296
-98.885971 -10.424454 10.05751
-98.901382 -10.528152 10.028519
-99.031601 -9.839249 10.129135
-99.067368 -9.842819 10.031052
-84.082687 -4.20076 4.167496
-84.164841 -4.036606 4.133804
-95.356094 -10.251053 4.293655
-94.757095 -9.321243 1.685318
-94.782394 -9.22789 1.672623
-94.772018 -9.322708 1.876236
-94.761826 -9.321701 1.971359
-94.753647 -9.320908 1.781357
-94.796188 -9.229233 1.957993
-94.807175 -9.230301 1.768417
-94.800522 -9.22966 1.862717
-95.243729 -10.430252 2.81929
-95.342972 -10.24968 2.947372
-95.110062 -10.511612 2.992661
-95.323776 -10.632034 2.9608
-95.565598 -10.175064 2.735031
-95.954971 -10.020248 2.902542
-95.511826 -10.070786 2.956741
-95.230423 -10.237564 3.135818
-95.860703 -10.402237 3.486618
-95.21608 -10.236008 3.231308
-95.372513 -10.252823 3.427811
-95.316055 -10.343124 3.274673
-95.362473 -10.34816 3.372391
-95.272629 -10.914169 3.746048
-95.240494 -10.910477 3.840836
-95.531296 -10.461716 3.500198
-95.21196 -10.23555 3.900894
-95.254105 -10.141861 3.878006
-95.236465 -10.041733 3.907852
-94.791977 -10.476456 3.078232
-94.695084 -10.656204 3.180252
-94.965042 -10.399734 3.001999
-94.928543 -10.395737 3.096268
-95.729263 -8.446884 2.946854
-95.78801 -9.13237 2.765671
-95.727554 -9.996506 2.991287
-94.77269 -9.322769 2.067703
-94.785294 -9.228165 2.148483
-94.79039 -9.228653 2.244888
-94.758163 -9.321335 2.258041
-94.765121 -9.322006 2.353561
-94.748611 -9.320389 2.449265
-94.784744 -9.228104 2.435501
-94.779861 -9.227646 2.339066
-94.763779 -9.321884 2.637955
-94.772751 -9.322739 2.733566
-94.754898 -9.320999 2.543167
-94.79332 -9.228958 2.625534
-94.782516 -9.22789 2.530807
-94.753799 -9.320877 2.922928
-94.760025 -9.321487 2.828568
-94.767838 -9.226456 2.909988
-94.778915 -9.227554 2.815903
-95.808212 -8.453842 2.852951
-95.877975 -8.854568 2.934769
-95.439163 -9.003769 3.359055
-95.883347 -9.913742 3.011856
-95.963791 -9.922043 3.111069
-95.852707 -9.815079 3.074142
-95.700729 -9.701767 3.104446
-95.587631 -9.59407 3.050522
-95.145737 -9.935745 3.164749
-95.138931 -9.934433 3.261887
-95.174698 -9.840469 3.276566
-95.276657 -9.658768 3.378708
-95.116867 -9.546829 3.418625
-95.547104 -9.494766 3.01561
-95.854904 -9.235214 3.163742
-95.878922 -9.141006 3.155136
-95.758774 -9.225937 3.353317
-95.691086 -9.123062 3.339767
-95.527359 -9.97496 3.947372
-95.12706 -9.6436 3.564407
-95.074387 -9.542557 3.511795
-95.43718 -9.772507 3.925156
-95.345016 -9.858078 3.762985
-95.602097 -9.210831 3.733597
-95.567642 -9.015884 3.651138
-95.543045 -9.012924 3.841537
-95.305283 -9.182236 3.530106
-95.180038 -9.458267 3.961655
-95.017349 -9.058792 3.985886
-94.7621 -9.321701 3.209335
-94.769028 -9.511917 3.215225
-94.877701 -9.90715 3.444107
-94.952499 -9.6259 3.27153
-94.763901 -9.321884 3.019424
-94.769394 -9.322403 3.114182
-94.762833 -9.225967 3.195999
-94.767197 -9.226395 3.100754
-94.763474 -9.226028 3.292343
-94.969559 -9.916733 3.543106
-94.905289 -9.525589 3.601151
-94.728867 -9.507858 3.688858
-94.741501 -9.701279 3.610153
-94.663345 -9.216293 3.574814
-94.80687 -9.421188 3.754868
-94.586136 -9.493546 3.873856
-94.753036 -9.225021 3.958969
-95.290573 -8.408157 3.219711
-95.903549 -8.856918 3.127945
-95.827133 -8.849869 3.029343
-95.651138 -8.538498 3.156906
-95.529099 -8.915909 3.387405
-95.718979 -8.64418 3.40535
-95.257584 -8.701431 3.235214
-95.426743 -8.906357 3.287704
-95.149368 -8.787277 3.485214
-95.550034 -8.431046 3.03743
-95.704208 -8.346268 3.057571
-95.504105 -8.230667 3.155411
-95.293381 -8.408401 3.315659
-95.281174 -8.309372 3.330978
-95.50972 -8.525894 3.536545
-95.186539 -8.883896 3.66124
-95.334641 -8.89772 3.571701
-95.033157 -8.776535 3.671707
-95.122269 -8.689041 3.519455
-95.104813 -8.783157 3.962387
-95.030411 -8.869308 3.942337
-95.299271 -8.507095 3.912338
-95.135147 -8.690231 3.807144
-95.984207 -8.176926 3.701614
-95.316452 -8.312454 3.715836
-95.315201 -8.312332 3.810501
-95.425552 -8.129349 3.968704
-95.096054 -8.006546 3.819016
-94.973892 -8.576889 3.952225
-94.824936 -8.269577 4.172684
-94.865219 -8.370621 4.063248
-95.051315 -9.44545 4.148056
-95.007278 -9.057816 4.080246
-95.417953 -9.001114 4.124741
-95.744797 -9.609818 4.791916
-95.773422 -9.517197 4.95192
-95.83815 -9.619186 4.989883
-95.013626 -9.632065 4.612717
-95.066269 -9.541733 4.853806
-94.754898 -9.225204 4.149948
-94.919388 -9.526993 4.176498
-94.757614 -9.224594 4.245529
-94.879776 -9.04567 4.171249
-94.750015 -9.224747 4.054276
-94.829453 -9.136368 4.084671
-94.7509 -9.223923 4.436172
-94.74144 -9.223007 4.340256
-94.750076 -9.509995 4.551071
-94.744064 -9.223282 4.626816
-94.808975 -9.134354 4.65538
-94.762711 -9.225082 4.532211
-94.759842 -9.224808 4.722153
-94.753159 -9.224167 4.912857
-94.753159 -9.033524 4.930405
-94.746109 -9.223465 4.816971
-95.088455 -8.488266 4.189713
-95.748917 -8.646866 4.274307
-95.111557 -8.783768 4.153671
-95.066757 -8.872696 4.136124
-95.004074 -8.962082 4.011185
-95.127304 -8.785233 4.058823
-95.125107 -8.785019 4.249802
-95.158585 -8.692368 4.190384
-95.154343 -8.593155 4.151474
-95.465775 -8.621292 4.357498
-95.760056 -8.062454 4.039169
-95.737381 -8.447586 4.486099
-95.457321 -8.324722 4.008316
-95.388138 -8.220688 4.207199
-95.217453 -8.401688 4.270004
-95.205276 -8.204941 4.294968
-95.144089 -8.105362 4.339523
-95.685318 -8.8358 4.85463
-95.631668 -8.734665 4.980881
-95.281845 -8.988266 4.694748
-95.118729 -8.589035 4.628159
-95.904984 -8.462357 4.592819
-95.544052 -8.233231 4.887436
-95.5345 -8.232407 4.98317
-95.06337 -8.485153 4.666061
-95.398087 -8.031113 4.888046
-94.975723 -8.185135 4.380203
-94.731735 -8.841385 4.407883
-94.873215 -8.949722 4.387863
-94.791367 -8.75325 4.426041
-94.917557 -8.571793 4.42775
-94.849075 -8.664078 4.368637
-94.983505 -8.960129 4.584335
-95.042496 -9.443741 5.488327
-95.662766 -9.697861 5.416824
-95.732132 -9.608566 5.466202
-95.034653 -9.922897 5.174423
-95.415024 -9.864243 5.207687
-95.366653 -9.859238 5.300613
-95.298508 -9.660934 5.299973
-95.216263 -9.556778 5.34169
-95.915573 -9.144333 5.18428
-95.388412 -9.09407 5.251053
-95.528641 -9.974503 5.58699
-95.668961 -9.890488 5.607346
-95.143539 -9.54863 5.527573
-95.913559 -9.144119 5.667831
-95.957535 -9.052017 5.598648
-95.873459 -9.043472 5.883896
-94.85704 -9.426132 5.190689
-94.810257 -9.801712 5.078934
-94.884933 -9.523514 5.131668
-94.94725 -9.62532 5.088669
-94.960037 -9.531052 5.231522
-94.746017 -9.223465 5.008011
-94.752487 -9.224106 5.20134
-94.745346 -9.223404 5.103531
-94.745346 -9.223404 5.392075
-94.741684 -9.223038 5.29631
-94.736282 -9.222519 5.487137
-94.949509 -9.721664 5.53212
-94.892776 -9.333633 5.604263
-94.745529 -9.223434 5.678879
-94.748734 -9.22374 5.58345
-94.784225 -9.131027 5.994003
-94.738205 -9.222733 5.773087
-94.738449 -9.222763 5.868729
-95.41655 -8.222244 5.073135
-95.586349 -8.730515 5.171158
-95.816147 -8.552353 5.090225
-95.195969 -8.884659 5.005264
-95.316452 -8.801743 5.026779
-95.211563 -8.886124 5.102097
-95.479294 -8.621597 5.029953
-95.402603 -8.903946 5.305527
-95.589218 -8.237137 5.178635
-95.894699 -8.072922 5.201523
-95.571091 -8.141739 5.032608
-95.606216 -8.143936 5.323135
-95.645828 -8.051987 5.284378
-95.901688 -8.950485 5.620529
-95.824844 -8.553116 5.669052
-95.834091 -8.849533 5.827469
-95.876389 -8.557724 5.866592
-95.32048 -8.706223 5.541977
-95.784958 -8.352402 5.66304
-95.71846 -8.248276 5.569717
-95.8871 -8.361313 5.957993
-95.993668 -8.271988 5.779251
-95.983536 -8.369705 5.867172
-95.862564 -8.260696 5.868027
-95.65416 -10.474197 6.496231
-95.81282 -10.299149 6.634628
-95.521713 -10.169327 6.684647
-95.959885 -10.215988 6.521744
-95.573074 -10.076157 6.717758
-95.827896 -10.20192 6.89949
-95.897964 -10.209396 6.806992
-95.785416 -10.197403 6.993088
-95.477066 -10.454819 7.258804
-95.208145 -10.521408 7.12822
-95.62886 -10.082047 7.108627
-95.890701 -10.011703 7.254044
-95.548416 -10.367447 7.913345
-95.930252 -10.015244 7.937637
-95.880051 -10.207474 7.777023
-95.222214 -10.039169 7.560349
-95.842941 -8.850357 6.118179
-95.67424 -9.98909 6.464462
-95.805954 -9.711533 6.488663
-95.873947 -9.621933 6.442337
-95.520676 -9.973068 6.838791
-95.918289 -9.722916 6.882217
-95.467606 -9.967514 6.738449
-95.403397 -9.960831 6.926865
-95.922623 -9.434921 6.924271
-94.740372 -9.222946 6.155777
-94.734024 -9.222336 6.060654
-94.775436 -9.130173 6.185562
-94.779922 -9.13063 6.089432
-94.77977 -9.1306 6.375748
-94.786545 -9.131241 6.470413
-94.740219 -9.222946 6.442825
-94.743912 -9.223282 6.251694
-94.741806 -9.223099 6.633408
-94.756454 -9.128342 6.660568
-94.776871 -9.130295 6.566269
-94.741531 -9.223068 6.53862
-94.760056 -9.128677 6.948868
-94.763535 -9.129013 6.757584
-94.761368 -9.128799 6.853195
-94.740128 -9.222061 6.824783
-95.971573 -8.765701 6.063797
-95.735001 -8.744095 6.145432
-95.979599 -8.666763 6.02446
-95.858047 -9.427658 7.209488
-95.959244 -9.920517 7.370316
-95.918503 -9.722946 7.465042
-95.865829 -9.428421 7.307022
-95.985641 -9.826859 7.727188
-95.98848 -9.923569 7.857498
-94.746628 -9.127365 7.235245
-94.738571 -9.221909 7.207779
-94.756699 -9.128342 7.140182
-94.751358 -9.127823 7.044754
-94.763504 -9.22435 7.401382
-94.756332 -9.223648 7.496689
-94.739822 -9.126724 7.425583
-94.741318 -9.126846 7.330643
-94.742172 -9.126938 7.713364
-94.764633 -9.224472 7.690079
-94.742752 -9.126999 7.522415
-94.747574 -9.127457 7.618668
-94.77916 -9.225906 7.883163
-94.769363 -9.22493 7.785446
-94.745438 -9.127243 7.906174
-94.738968 -9.126633 7.809738
-95.669846 -7.959763 4.056015
-95.619156 -7.955551 3.957687
-95.763229 -7.774582 3.993149
-88.120163 -0.07338 3.809982
-88.024551 -0.69136 3.976883
-95.616318 -7.8582 4.007492
-95.874893 -7.975937 4.161179
-95.879807 -7.976334 5.320816
-88.062698 -0.337418 5.83168
-84.235092 -4.124069 4.176102
-84.047928 -6.229538 1.570053
-86.263626 -4.396317 3.129044
-86.255966 -4.482407 3.171341
-86.211472 -4.652237 3.779037
-86.009384 -4.554489 3.82338
-85.174026 -4.08577 2.816483
-85.232986 -4.258804 3.025558
-85.834274 -4.807693 3.216019
-85.453934 -4.872299 3.413651
-85.125717 -4.594376 3.475754
-85.548508 -4.359879 3.18898
-85.547623 -4.103683 3.172104
-85.534866 -4.103073 3.086655
-85.198715 -4.342026 3.004898
-85.298569 -4.176132 3.029495
-85.180557 -4.000259 3.184128
-85.277451 -4.260422 3.456161
-85.038498 -4.418533 3.466995
-85.087906 -4.081619 3.411179
-85.887711 -4.984024 3.794357
-85.844894 -4.720444 3.902634
-85.892014 -4.634995 3.851273
-85.810043 -4.718521 3.814835
-85.886154 -4.634689 3.937271
-85.240158 -4.774429 3.707413
-85.338852 -4.865738 3.666183
-85.389938 -4.782822 3.628494
-85.29451 -4.602737 3.653214
-85.253403 -4.687912 3.61882
-85.293411 -4.77742 3.795029
-85.391922 -4.86879 3.75325
-85.194595 -4.426651 3.557907
-85.269943 -4.430588 3.645676
-85.129013 -4.167831 3.963974
-84.09996 -4.286057 3.47142
-84.714584 -4.572159 3.203171
-84.542526 -4.906662 3.394424
-84.547195 -4.906937 3.478561
-84.541855 -4.820297 3.461136
-84.750259 -4.660233 3.25798
-84.662216 -4.74205 3.426804
-84.68782 -4.656784 3.339676
-84.623978 -4.739914 3.33992
-84.661636 -4.569321 3.286148
-84.702408 -4.571518 3.372726
-84.73201 -4.487442 3.17244
-84.817276 -4.407028 3.202591
-84.787704 -4.235947 3.180222
-84.790451 -4.067368 3.22908
-84.740585 -4.148819 3.095749
-84.786758 -4.405441 3.286514
-84.814865 -4.406906 3.372757
-84.680618 -4.484116 3.254929
-84.799545 -4.151688 3.268265
-84.99382 -4.246231 3.272415
-84.937576 -4.243423 3.356644
-84.801346 -4.151779 3.353165
-84.227615 -4.207962 3.49733
-84.250198 -4.041428 3.462143
-84.237534 -4.124191 3.499496
-84.593124 -4.823227 3.549179
-84.890427 -4.495224 3.518936
-84.962234 -4.330002 3.592331
-84.143936 -4.288315 3.727951
-84.368515 -4.1306 3.674484
-84.27272 -4.1259 3.585953
-84.304977 -4.044052 3.633621
-84.18605 -4.205887 3.749344
-84.182632 -4.205734 3.58046
-84.152817 -4.120041 3.749985
-84.134323 -4.371597 3.93602
-84.190567 -4.206131 3.91832
-84.230209 -4.208115 3.83638
-84.061508 -4.031631 3.791916
-80.818741 -4.852402 1.458572
-80.934708 -4.697189 1.463974
-81.940323 -5.414658 1.856033
-80.830002 -5.014572 1.337784
-81.084396 -4.376938 1.439346
-81.077194 -4.70549 1.873093
-80.879044 -4.936905 1.582504
-84.75853 -1.428726 1.442245
-84.759384 -1.341904 1.447037
-84.751205 -1.429367 1.273239
-84.756241 -1.428696 1.35817
-84.755386 -1.342606 1.362137
-84.7621 -1.428757 1.696884
-84.762466 -1.341934 1.701645
-84.759232 -1.428726 1.527908
-84.76207 -1.428787 1.612015
-84.767899 -1.342026 1.532028
-84.765091 -1.341995 1.616837
-84.76033 -1.428726 1.950668
-84.765274 -1.428818 1.781021
-84.756363 -1.428665 1.865707
-84.769028 -1.342026 1.785873
-84.769638 -1.342056 1.870773
-84.757431 -1.341843 1.956863
-86.023941 -2.481888 2.129227
-86.423874 -3.021072 2.742355
-86.166275 -3.01207 2.820541
-86.020401 -2.397141 2.190231
-86.560837 -2.584732 2.873764
-86.116104 -2.836655 2.983963
-86.13588 -2.837326 2.8983
-86.227768 -2.926743 2.77861
-86.0168 -2.833389 2.80806
-86.03569 -2.657028 2.894302
-86.860153 -2.07869 2.995407
-87.281509 -3.226059 3.452042
-86.134201 -3.269028 3.275284
-86.133743 -3.870865 3.431808
-86.228775 -3.875137 3.78038
-86.663223 -3.289108 3.555099
-86.882919 -3.383163 3.723434
-86.854141 -3.296341 3.65007
-86.154648 -3.011612 3.945206
-87.111526 -2.956711 3.593185
-86.063675 -2.921158 3.033005
-86.124344 -2.923203 3.984482
-84.997513 -2.451736 2.444473
-85.169876 -3.485977 2.719498
-85.191544 -3.74324 2.686264
-85.196274 -3.658585 2.722794
-85.397934 -3.924301 2.849533
-85.24202 -3.916458 2.760483
-85.139847 -3.826981 2.794388
-85.242661 -3.746201 2.773087
-85.027237 -3.565964 2.771225
-85.52388 -3.076797 2.906479
-85.095932 -3.313583 2.709
-85.106003 -3.229996 2.724106
-85.191757 -3.064865 2.725113
-85.00618 -3.479263 2.799515
-85.212112 -3.402206 2.757736
-85.180069 -3.148575 2.772354
-85.206284 -3.065384 2.810989
-84.693954 -3.29866 2.441544
-84.836594 -3.135971 2.421677
-84.755264 -3.217361 2.457962
-84.775436 -3.050552 2.456192
-84.517685 -3.798264 2.943497
-84.751205 -3.808762 2.865952
-84.842545 -3.72789 2.844864
-84.933853 -3.646652 2.8004
-84.546158 -3.62999 2.955551
-84.550735 -3.630203 2.872543
-84.057663 -3.524643 2.908188
-84.705399 -3.298386 2.526749
-84.706863 -3.131149 2.502182
-84.112015 -3.442673 2.85524
-84.293106 -3.282333 2.936081
-84.357193 -3.284836 2.85463
-84.251968 -3.363846 2.895218
-84.314041 -3.366318 2.984024
-84.425217 -3.204178 2.956284
-84.430801 -3.204391 2.87236
-84.480911 -3.122665 2.919022
-85.845749 -2.308517 2.226151
-85.616898 -2.556564 2.499985
-85.137558 -2.805161 2.437332
-85.750198 -2.137314 2.210007
-85.908981 -2.141281 2.128677
-85.564804 -2.047714 2.264542
-85.739029 -2.647842 2.799118
-85.683212 -2.735672 2.829178
-85.133041 -2.804306 2.607803
-85.075058 -2.716263 2.639114
-85.220444 -2.631851 2.525253
-85.138382 -2.718307 2.55574
-85.133224 -2.629166 2.607986
-85.000168 -2.538132 2.567154
-85.154037 -2.718796 2.727493
-85.240005 -2.893204 2.917679
-85.193619 -2.891647 2.830673
-85.169693 -2.977219 2.873306
-85.752182 -2.221115 2.697708
-85.850296 -2.476334 2.899979
-85.238144 -2.37532 2.680984
-85.390335 -2.296249 2.641281
-85.296982 -2.460892 2.539322
-85.185593 -2.457687 2.621384
-85.028549 -2.369492 2.589462
-85.005478 -2.201797 2.587601
-85.019485 -2.119095 2.533127
-84.925949 -2.366623 2.416733
-84.80571 -2.879166 2.477798
-84.90416 -2.968643 2.440475
-84.900955 -2.621994 2.43071
-84.826706 -2.532974 2.306931
-84.795853 -2.618759 2.257767
-84.86647 -2.620926 2.345413
-84.972458 -2.285019 2.458054
-84.94783 -2.450302 2.272812
-84.966751 -2.450851 2.358475
-84.943924 -2.367142 2.332443
-84.988815 -2.118332 2.446426
-84.900223 -2.796646 2.51561
-84.996353 -2.971176 2.951828
-84.320053 -2.692154 2.952652
-84.291458 -2.603134 2.920853
-84.5522 -2.273727 2.700089
-84.965714 -2.367752 2.502701
-84.935593 -2.199997 2.500381
-84.975662 -2.033615 2.589615
-84.527359 -2.106796 2.68721
-84.661758 -2.026077 2.664597
-84.682816 -2.359848 2.833359
-84.253464 -2.182266 2.734268
-84.10112 -2.425858 2.923721
-84.216751 -2.264694 2.773788
-84.203415 -2.264328 2.858566
-84.054123 -2.342331 2.895615
-84.057327 -2.260391 2.938675
-84.390213 -2.103378 2.768051
-84.119736 -2.178787 2.899246
-84.151871 -2.179642 2.816025
-84.096664 -2.096054 2.842056
-84.038651 -2.09462 2.924301
-85.058151 -3.4814 3.143234
-85.541214 -3.930191 3.026749
-85.782547 -3.68306 3.342941
-85.044876 -3.993881 3.008957
-85.359573 -3.836075 3.144058
-85.28273 -3.832626 3.055008
-85.405075 -3.83812 3.487137
-85.257828 -3.831528 3.310715
-85.094559 -3.738937 3.448898
-85.925919 -3.516098 3.950333
-85.919907 -3.602676 3.836075
-85.39122 -3.923264 3.790939
-85.25322 -3.574722 3.892654
-85.55043 -3.077744 3.507889
-85.367966 -3.155258 3.634689
-85.340439 -3.070206 3.584183
-84.362045 -3.36824 3.238174
-84.841141 -3.898026 3.172195
-84.857864 -3.985092 3.086868
-84.989792 -3.904861 3.092484
-84.948135 -3.647232 3.139999
-84.918533 -3.731216 3.186996
-84.904739 -3.64537 3.223557
-84.905807 -3.560196 3.193771
-84.611191 -3.632767 3.042679
-84.563919 -3.715652 3.005234
-84.667191 -3.550186 3.098312
-84.268539 -3.957413 3.403946
-84.278976 -3.957901 3.488998
-84.320419 -3.959854 3.320694
-84.338486 -3.874924 3.322617
-84.280258 -3.872238 3.489487
-84.88887 -3.389267 3.173447
-84.992081 -3.478683 3.226028
-84.854263 -3.220444 3.056412
-84.548782 -3.125137 3.090958
-84.395157 -3.369553 3.070541
-84.462845 -3.121964 3.003098
-84.4655 -3.457138 3.289932
-84.069199 -3.356552 3.31105
-84.072128 -3.273697 3.34996
-84.234421 -3.196915 3.370956
-84.866287 -3.643723 3.733841
-84.313705 -3.959549 3.57515
-84.392502 -3.877396 3.578018
-84.489548 -3.796982 3.619339
-84.352768 -3.790848 3.528152
-84.332291 -3.705429 3.67308
-84.297989 -3.534683 3.594467
-84.119553 -3.949692 3.90303
-84.031082 -3.945541 3.814468
-84.155228 -3.781937 3.858444
-84.199387 -3.868515 3.82338
-84.191086 -3.868118 3.99205
-84.281631 -3.703201 3.925217
-84.268784 -3.618057 3.8759
-84.201004 -3.699661 3.836533
-84.158829 -3.613327 3.786362
-84.519485 -3.123795 3.937851
-84.433212 -3.455002 3.626663
-84.002975 -3.022079 3.612259
-85.153793 -2.976639 3.471359
-85.05687 -2.625931 3.712753
-85.236679 -2.207535 3.877762
-84.061935 -2.260513 3.022263
-84.618515 -2.872116 3.06691
-84.025375 -2.851974 3.12883
-84.38475 -2.949783 3.015213
-84.223465 -2.774307 3.002792
-84.161636 -2.772263 3.085709
-84.268509 -2.690506 3.035904
-84.486526 -2.782974 3.436478
-84.700027 -2.96077 3.962753
-84.13176 -2.771255 3.926895
-84.038132 -2.768173 3.838211
-86.234604 -0.331314 2.339035
-87.367966 -1.562485 2.994797
-86.105698 -1.276474 2.281326
-86.043716 -1.625687 2.287735
-86.303482 -1.890366 2.593948
-86.430313 -1.980301 2.574814
-86.073013 -1.189743 2.550919
-86.105209 -1.01799 2.899521
-87.131088 -0.160233 2.712875
-87.447708 -0.07283 2.991776
-86.304123 -0.419022 2.434799
-86.748398 -0.853378 2.16774
-86.788925 -0.939957 2.199722
-86.583572 -0.851761 2.424332
-86.659744 -0.852493 2.253464
-86.510056 -0.593002 2.449203
-86.554031 -0.68071 2.263321
-86.611038 -0.681137 2.351547
-86.630692 -0.593826 2.279709
-86.728561 -0.508102 2.419174
-86.052322 -0.846512 2.495651
-86.290482 -0.934555 2.446457
-86.495438 -0.850876 2.335251
-86.309555 -0.764359 2.373764
-86.333969 -0.764572 2.461288
-86.371964 -0.506027 2.322739
-86.48732 -0.59285 2.362595
-86.142776 -0.677444 2.425125
-86.22319 -0.505142 2.490433
-86.995102 -0.422379 2.194595
-86.289047 -0.418961 2.26149
-86.327988 -0.419144 2.348984
-86.282791 -0.331497 2.253922
-86.47966 -0.24559 2.382492
-86.226089 -0.158585 2.426315
-86.216232 -0.244858 2.288895
-86.173141 -0.244736 2.460373
-86.365555 -0.935349 2.535812
-86.099045 -0.932449 2.958817
-86.195908 -0.590836 2.870865
-86.736588 -0.1595 2.960556
-86.360519 -0.071945 2.783493
-87.279709 -1.823166 3.334946
-87.515305 -1.565109 3.438431
-87.321579 -1.736069 3.484726
-87.269241 -1.648788 3.546127
-87.293655 -1.735489 3.571152
-86.801498 -1.900375 3.651352
-87.036301 -0.247147 3.183334
-87.168533 -0.944016 3.082962
-87.303604 -0.773117 3.448654
-87.399887 -0.0728 3.340591
-87.835953 -0.513718 3.505051
-87.639999 -0.512558 3.936508
-87.042923 -0.247177 3.531021
-86.145493 -0.071732 3.46608
-86.010422 -0.416733 3.893295
-84.723434 -0.070572 2.4767
-85.113663 -1.176468 2.266708
-85.528091 -1.959671 2.206039
-85.639999 -1.875839 2.230118
-85.557663 -1.960312 2.378189
-85.610764 -1.961563 2.293167
-85.545273 -1.873764 2.313339
-85.586716 -1.960983 2.464706
-85.556107 -1.787216 2.41188
-85.876968 -1.622543 2.455307
-85.909103 -1.708847 2.310104
-85.925003 -1.623459 2.370621
-85.545883 -1.701614 2.386032
-85.646439 -1.703629 2.473648
-85.293808 -1.781754 2.148941
-85.417068 -1.784317 2.236862
-85.366257 -1.698044 2.210007
-85.344406 -1.697617 2.038467
-85.451126 -1.528244 2.244247
-85.063553 -1.521317 2.063675
-85.237198 -1.610458 2.097244
-85.193405 -1.523636 2.409012
-85.610764 -1.012161 2.195969
-85.60466 -1.09697 2.258713
-85.66246 -1.012772 2.283096
-85.329544 -1.179459 2.443405
-85.360825 -1.093857 2.422928
-85.2939 -1.17897 2.356949
-85.285355 -1.09288 2.335526
-85.618942 -1.788528 2.58519
-85.853745 -1.707748 2.565659
-85.528091 -1.267899 2.695602
-85.215347 -1.007462 2.699661
-85.127701 -1.090866 2.756729
-84.747757 -1.34169 2.126328
-84.954025 -1.519333 2.488205
-84.754318 -1.428604 2.205948
-84.752884 -1.341751 2.211319
-84.758804 -1.428696 2.035507
-84.757462 -1.428665 2.120346
-84.750595 -1.341721 2.040787
-84.77684 -1.42897 2.375565
-84.762802 -1.428757 2.291061
-84.763596 -1.341934 2.295731
-84.786606 -1.429153 2.46077
-84.763687 -1.341934 2.381393
-84.762497 -1.341904 2.465469
-84.554825 -1.083511 2.484573
-84.545303 -1.851852 2.625076
-84.779282 -1.942459 2.695511
-84.863693 -1.77272 2.731674
-84.67485 -1.85466 2.714676
-84.741013 -1.515518 2.735794
-84.699631 -1.600266 2.846725
-84.243546 -1.506638 2.63533
-84.413681 -1.679092 2.691788
-84.369705 -1.59404 2.580399
-84.365585 -1.593948 2.665604
-84.227097 -1.506332 2.55043
-84.280991 -1.931046 2.932999
-84.3069 -1.761093 2.798203
-84.156326 -1.843307 2.948837
-84.121384 -1.842545 2.864792
-84.361435 -1.678055 2.773666
-84.766159 -1.428787 2.62999
-84.76152 -1.341873 2.636002
-84.774826 -1.42894 2.545334
-84.916 -1.258835 2.505417
-84.770706 -1.342026 2.551376
-84.766556 -1.256607 2.586288
-84.759598 -1.341843 2.720078
-84.660172 -1.084854 2.571548
-84.803268 -1.342514 2.891403
-84.808762 -1.429489 2.802078
-84.779739 -1.25679 2.756668
-84.722061 -1.255936 2.839401
-84.239487 -1.333603 2.955826
-84.106613 -1.246811 2.901443
-85.006149 -0.326584 2.391647
-85.562454 -0.757767 2.181747
-85.617477 -0.927261 2.255814
-85.148331 -0.583664 2.495987
-85.400894 -0.671616 2.489761
-85.615707 -0.842209 2.740829
-85.742844 -0.84346 2.659012
-85.712204 -0.928268 2.601883
-85.76564 -0.674484 2.672989
-85.362228 -0.67131 2.574905
-85.276749 -0.838882 2.900864
-85.413315 -0.840225 2.819931
-85.227097 -0.754745 2.940292
-85.129471 -0.669479 2.908249
-85.138016 -0.66954 2.993088
-85.553665 -0.328659 2.920395
-85.267563 -0.499527 2.633652
-85.150497 -0.241806 2.687057
-85.273392 -0.499557 2.976517
-85.393143 -0.071121 2.837234
-84.996384 -0.156326 2.476151
-84.554306 -0.999649 2.593155
-84.761917 -0.750656 2.500412
-84.939163 -0.58223 2.659409
-84.667343 -0.665848 2.723587
-84.709061 -0.580643 2.737106
-84.712387 -0.666183 2.809891
-84.254105 -0.996078 2.92244
-84.66539 -0.411057 2.728439
-84.932297 -0.497574 2.708359
-84.89595 -0.412155 2.564621
-84.967514 -0.326431 2.560745
-84.540817 -0.324783 2.717239
-84.857437 -0.156052 2.557755
-84.934738 -0.241196 2.595901
-84.534439 -0.155472 2.717392
-84.904831 -0.326157 2.984146
-84.724106 -0.496353 2.786606
-84.663742 -0.325241 2.805222
-84.801285 -0.070633 2.986221
-84.507065 -0.155411 2.800461
-84.660477 -0.240433 2.757126
-84.533737 -0.240067 2.83696
-85.465714 -1.785294 3.007217
-85.028 -1.520615 3.255447
-85.431503 -1.614059 3.385818
-85.255966 -1.694962 3.999863
-85.706833 -1.183823 3.91362
-85.094711 -1.261429 3.53331
-84.007156 -1.32991 3.032578
-84.627853 -1.767776 3.064713
-84.828629 -1.517044 3.417892
-84.110214 -1.927109 3.011337
-84.043564 -1.840836 3.029129
-84.009628 -1.587204 3.245285
-84.896194 -1.343979 3.233322
-84.778702 -1.002304 3.11055
-84.537094 -1.083267 3.246262
-84.836319 -1.429947 3.398148
-84.825516 -1.429764 3.312668
-84.703537 -1.001389 3.277603
-84.291641 -1.420761 3.123642
-84.741776 -1.601028 3.612503
-84.795181 -1.516464 3.501572
-85.608017 -0.157425 3.008499
-85.359055 -0.585068 3.101028
-85.582474 -0.157364 3.434341
-85.580002 -0.58577 3.79567
-85.137589 -0.753128 3.876297
-84.376175 -0.494278 3.029739
-84.661667 -0.665787 3.061172
-84.020065 -0.825729 3.194901
-84.107315 -0.910873 3.058395
-84.345566 -0.663284 3.133499
-84.389084 -0.82933 3.293503
-84.029312 -0.910019 3.391983
-84.014359 -0.909836 3.307114
-84.397598 -0.747391 3.418198
-84.384109 -0.577621 3.404037
-84.348495 -0.32402 3.048294
-84.358505 -0.155136 3.048416
-84.310562 -0.070206 3.052811
-84.001694 -0.153671 3.455765
-84.584122 -0.664352 3.906265
-84.444839 -0.914505 3.662247
-84.445023 -0.82988 3.71727
-84.305283 -0.912979 3.572281
-84.036392 -0.660049 3.713211
-84.115921 -0.826645 3.787125
-84.058395 -0.826096 3.869949
-84.306747 -0.745773 3.922775
-84.270218 -0.66188 3.976303
-84.46312 -0.57814 3.914963
-84.04866 -0.743515 3.995468
-84.191422 -0.576279 3.817886
-84.277725 -0.492905 3.531998
-83.469986 -2.326035 2.958878
-83.262772 -2.075272 2.980148
-83.724869 -2.168533 2.968826
-83.762497 -3.261673 3.169601
-83.922379 -3.518936 3.493484
-83.755264 -3.095749 3.229263
-83.920517 -3.019119 3.18718
-83.867172 -3.182999 3.105515
-83.840775 -3.016251 3.100082
-83.975906 -3.437088 3.355118
-83.787521 -3.262619 3.255447
-83.90657 -3.0186 3.270798
-83.842484 -3.599747 3.520523
-83.884781 -3.517349 3.997025
-83.735916 -3.427261 3.681564
-83.829971 -3.264267 3.675827
-83.857895 -3.432236 3.518661
-83.762314 -3.344284 3.718857
-83.829575 -3.181564 3.690659
-83.606888 -3.007828 3.679123
-83.707047 -3.093826 3.731979
-83.775925 -3.428116 3.935562
-83.762955 -3.344284 3.802719
-83.708572 -3.425369 3.764389
-83.898483 -3.184189 3.947433
-83.773117 -3.013809 3.854538
-83.673843 -3.010239 3.766006
-83.027267 -2.394882 3.218613
-83.952011 -2.934647 3.085587
-83.519119 -2.834793 3.277481
-83.904984 -2.505417 3.37294
-83.362442 -2.914047 3.231918
-83.428329 -2.916336 3.149979
-83.263412 -2.826096 3.183945
-83.341049 -2.660873 3.169083
-83.316299 -2.744431 3.13826
-83.323349 -2.744644 3.222061
-83.405411 -2.57576 3.140976
-83.422989 -2.576309 3.224564
-83.423416 -2.831528 3.357376
-83.420731 -2.663437 3.256332
-83.073471 -2.652328 3.408859
-83.101913 -2.48143 3.091415
-83.256973 -2.401505 3.14476
-83.368118 -2.489395 3.017746
-83.373245 -2.404861 3.065567
-83.323868 -2.321976 3.122177
-83.380936 -2.323563 3.208298
-83.275314 -2.156845 3.204727
-83.308243 -2.076401 3.065903
-83.461136 -2.24437 3.168015
-83.297226 -2.239944 3.245316
-83.290237 -2.075943 3.232224
-83.235428 -2.07457 3.146011
-83.207413 -2.155106 3.035294
-83.013718 -2.394485 3.302811
-83.340836 -2.158524 3.290787
-83.254349 -2.074234 3.313644
-83.231064 -2.238174 3.492294
-83.912979 -2.933243 3.673325
-83.833939 -2.761459 3.746292
-83.957809 -2.93483 3.591049
-83.837357 -2.930618 3.754135
-83.026962 -2.068527 3.803543
-82.841873 -2.389542 3.379044
-82.60817 -2.803848 3.489487
-82.757126 -2.554947 3.447067
-82.984085 -2.562759 3.373306
-82.623123 -2.637955 3.473251
-82.574356 -2.719986 3.441513
-82.847946 -2.473038 3.498062
-82.978653 -2.393478 3.46785
-82.854233 -2.308884 3.353653
-82.827927 -2.308151 3.435379
-82.719833 -2.060898 3.375931
-82.682571 -2.223434 3.304276
-82.61348 -2.139664 3.344894
-82.684708 -2.060043 3.457413
-82.674728 -2.723282 3.528641
-82.508774 -2.633499 3.881271
-82.674271 -2.552383 3.858292
-82.539627 -2.548233 3.769211
-82.555191 -2.634995 3.968521
-82.516556 -2.547501 3.933731
-82.606949 -2.465836 3.654343
-82.817215 -2.38884 3.627243
-82.824966 -2.389053 3.54451
-82.836105 -2.308365 3.519821
-82.796249 -2.307236 3.600906
-82.607101 -2.382767 3.70018
-82.506241 -2.462845 3.731918
-82.634598 -2.30275 3.677139
-82.82695 -2.145126 3.685074
-82.971786 -2.148911 3.608292
-82.754379 -2.061752 3.542679
-82.776993 -2.225143 3.639267
-82.827621 -2.389114 3.793167
-82.563705 -2.464554 3.900192
-82.646042 -2.467026 3.821152
-82.562729 -2.381485 3.945999
-82.586075 -2.465225 3.984116
-82.828812 -2.226547 3.807724
-82.79924 -2.143845 3.849228
-82.620102 -2.139206 3.923111
-82.623978 -2.058487 3.868607
-82.185349 -2.127914 3.985611
-82.432205 -2.215866 3.95491
-83.700089 -1.072556 2.963028
-83.990341 -1.160934 2.992386
-83.709 -1.581528 2.980331
-83.785355 -1.66658 2.92366
-83.016647 -1.230606 3.363419
-83.502579 -1.913193 3.156235
-83.896133 -1.83757 3.191971
-83.882553 -1.752213 3.457413
-83.826462 -1.920609 3.251755
-83.755203 -1.582382 3.485672
-83.687851 -1.663834 3.255814
-83.642227 -1.747177 3.2798
-83.454727 -1.997177 3.128738
-83.481796 -1.997818 3.213181
-83.417343 -1.996292 3.04335
-83.478622 -1.660446 3.163986
-83.391251 -1.658737 3.077072
-83.455429 -1.576736 3.055771
-83.424973 -1.576157 3.139084
-83.423477 -1.826431 3.426346
-83.392471 -1.91066 3.318527
-83.304886 -1.993576 3.290268
-83.471664 -1.828293 3.259506
-83.736252 -1.157425 3.152878
-83.755966 -1.1577 3.069656
-83.66246 -1.072067 3.045364
-83.287552 -1.067245 3.28157
-83.888809 -1.751541 3.541763
-83.748917 -1.665024 3.510117
-83.740646 -1.748428 3.618759
-83.541183 -1.57753 3.895584
-83.085464 -1.568924 3.957687
-83.877762 -1.413773 3.526321
-82.346451 -1.472641 3.483017
-82.659225 -1.893845 3.454361
-82.853073 -1.8983 3.380112
-82.744125 -1.979355 3.350174
-82.911301 -1.312546 3.240799
-82.753708 -1.22673 3.186081
-82.975815 -1.313553 3.326492
-82.827011 -1.227798 3.273605
-82.922653 -1.14537 3.288467
-82.347549 -1.303604 3.466385
-82.363693 -1.054611 3.492325
-82.427567 -1.138535 3.351456
-82.602768 -1.809219 3.723251
-82.828598 -1.896927 3.712784
-82.989517 -1.81691 3.658157
-82.573044 -1.975266 3.590866
-82.588425 -1.72438 3.734573
-82.525131 -1.640701 3.624374
-82.710678 -1.644363 3.715469
-82.612167 -1.560776 3.686569
-82.762192 -1.89537 3.959549
-82.805832 -1.98082 3.767868
-82.746078 -1.811569 3.895706
-82.649582 -1.892807 3.786911
-82.695938 -1.893875 3.872726
-82.726761 -1.811142 3.811813
-82.902328 -1.730911 3.832626
-82.746658 -1.645096 3.800095
-82.744705 -1.563278 3.776291
-82.442703 -1.972153 3.502792
-82.891464 -1.481613 3.671463
-82.847427 -1.22731 3.689102
-82.771439 -1.143295 3.531418
-82.796127 -1.143631 3.615494
-82.781113 -1.059952 3.593552
-82.932571 -1.061905 3.68309
-82.512924 -1.223129 3.509232
-82.760269 -1.394913 3.978134
-82.850937 -1.480881 3.752762
-82.805038 -1.310837 3.985306
-82.917191 -1.228317 3.941574
-82.556198 -1.222977 3.758652
-82.593002 -1.140823 3.855118
-82.607498 -1.22374 3.843582
-82.658401 -1.058395 3.753586
-82.599503 -1.057632 3.833542
-82.237991 -1.301865 3.627396
-82.313828 -1.303055 3.713272
-82.353348 -1.388077 3.544815
-82.333755 -1.303391 3.549088
-82.201004 -1.385513 3.620682
-82.342545 -1.220627 3.584305
-82.315933 -1.303085 3.879196
-82.322556 -1.387558 3.791946
-82.372726 -1.054733 3.906174
-83.389389 -0.069443 3.103714
-83.912704 -0.743118 3.147049
-83.806717 -0.574448 3.128647
-83.993851 -0.74382 3.066849
-83.768631 -0.82402 3.436661
-83.853714 -0.824081 3.356644
-83.45369 -0.655472 3.436447
-83.498215 -0.739426 3.465195
-83.451553 -0.572006 3.449478
-83.693558 -0.405533 3.201492
-83.784958 -0.490829 3.175461
-83.772232 -0.490738 3.091019
-83.654007 -0.320572 3.190842
-83.708817 -0.405594 3.034256
-83.641586 -0.405289 3.115128
-83.587997 -0.23735 3.140976
-83.644211 -0.153824 3.10643
-83.592422 -0.237381 3.224197
-83.769913 -0.320999 3.447159
-83.674301 -0.405441 3.451889
-83.666245 -0.40538 3.367661
-83.656906 -0.320572 3.274002
-83.927933 -0.069901 3.29335
-83.744858 -0.237015 3.481186
-83.578476 -0.821365 3.595322
-83.602737 -0.739578 3.639267
-83.571945 -0.740067 3.553757
-83.53154 -0.656082 3.606369
-83.795303 -0.907455 3.885696
-83.748154 -0.906937 3.800095
-83.479294 -0.821182 3.507919
-83.315933 -0.570297 3.611649
-83.189743 -0.570206 3.522751
-83.55867 -0.236496 3.556473
-83.554214 -0.488663 3.920578
-83.575638 -0.236526 3.976974
-83.121658 -0.48616 3.566879
-83.373795 -0.403976 3.690872
-83.347458 -0.403854 3.605576
-83.403488 -0.319595 3.515671
-83.355728 -0.235916 3.715714
-83.402023 -0.152573 3.514694
-83.044052 -0.151932 3.667465
-83.429733 -0.404221 3.942215
-83.483871 -0.404495 3.861038
-83.479446 -0.152725 3.937149
-83.00145 -0.15184 3.831375
-83.189865 -0.152176 3.756668
-82.713577 -0.895767 3.42186
-82.876328 -0.979019 3.53923
-82.888351 -0.979172 3.622849
-82.195969 -0.889359 3.978439
-82.315353 -0.890671 3.899673
-82.25441 -0.971664 3.922653
-82.170425 -0.807541 3.947861
-82.930435 -0.317764 3.743576
-82.849197 -0.068222 3.748306
-82.949295 -0.317856 3.828415
-82.987564 -0.234879 3.783249
-82.838547 -0.068222 3.830948
-84.071701 -4.116074 4.083145
-86.551346 -4.497177 4.136032
-86.504745 -4.494766 4.221664
-86.624252 -4.674515 4.230698
-86.577316 -4.584579 4.197556
-86.512619 -4.668503 4.312149
-86.558456 -4.583572 4.283707
-86.112991 -4.909897 4.13002
-86.11647 -4.997299 4.237045
-86.087845 -4.821945 4.089493
-86.099106 -4.996323 4.321762
-86.004715 -4.124832 5.520889
-84.074783 -4.452042 4.329941
-85.082718 -5.022537 4.489548
-85.106125 -4.337357 4.113174
-85.612198 -4.881332 4.192032
-85.741653 -4.802536 4.158829
-85.642715 -4.797012 4.240433
-85.778763 -4.628891 4.017075
-85.797958 -4.71785 4.072922
-85.736618 -4.714493 4.156174
-85.704636 -4.800491 4.329971
-85.093582 -4.937973 4.442337
-85.155533 -4.76973 4.386765
-85.148361 -4.854904 4.427109
-85.408554 -4.52269 4.312057
-85.140518 -4.681717 4.383041
-85.245132 -4.600113 4.334641
-85.173813 -4.683578 4.470383
-85.1129 -4.592972 4.414139
-85.129715 -4.338547 4.028152
-85.188248 -4.085678 4.09935
-85.00618 -4.761368 4.634995
-85.378983 -4.782242 4.741501
-85.094925 -4.938065 4.527969
-85.122787 -4.853439 4.510361
-85.044662 -4.676468 4.635574
-85.327896 -4.778793 4.996353
-85.412216 -4.783524 4.828842
-85.385147 -4.868423 4.867752
-85.398483 -4.869186 4.954422
-85.44194 -4.697769 4.829086
-85.419113 -4.609512 4.858627
-84.100143 -4.369827 4.272324
-84.336227 -4.551071 4.458633
-84.888351 -4.410172 4.482986
-84.87413 -4.070602 4.339157
-84.273972 -4.462601 4.424362
-84.287766 -4.126633 4.431412
-84.169846 -4.205093 4.255569
-84.198227 -4.122269 4.259293
-84.009903 -4.113022 4.332626
-84.663406 -4.741592 4.871994
-84.790146 -4.661911 4.878494
-84.800919 -4.576157 4.908737
-84.286484 -4.548386 4.625412
-84.482651 -4.558975 4.721115
-84.502121 -4.390121 4.632431
-84.857437 -4.493515 4.62645
-84.735092 -4.402206 4.560043
-84.732773 -4.486893 4.533707
-84.91713 -4.411697 4.996689
-84.90947 -4.326767 4.87117
-84.591568 -4.225601 4.871719
-84.07692 -4.284317 4.654312
-84.462387 -4.472 4.689285
-84.08934 -4.116928 4.673843
-84.135056 -4.035172 4.640335
-84.024918 -4.448837 4.834183
-84.059341 -4.19899 4.756699
-84.143723 -4.118912 4.763199
-85.283401 -4.94902 5.050705
-85.323166 -4.864883 5.035904
-85.350174 -4.86586 5.124374
-84.601395 -4.226089 5.127792
-84.702591 -4.400589 5.409103
-84.756973 -4.487595 5.301865
-84.689194 -4.484024 5.381638
-84.719894 -4.401474 5.324966
-84.718246 -4.401413 5.496323
-84.694901 -4.484329 5.468033
-84.719467 -4.57106 5.501297
-84.985519 -4.075943 5.712875
-86.21553 -4.04744 6.341019
-85.659195 -4.108261 6.187668
-85.776871 -4.198868 6.234665
-85.75386 -4.112808 6.108139
-85.703293 -4.110397 6.277176
-85.020828 -4.07692 7.170883
-85.014786 -4.160934 7.380325
-84.674454 -4.144272 7.178848
-84.727005 -4.146835 7.097977
-84.766647 -4.064743 7.064774
-84.90831 -4.071518 7.418503
-84.920792 -4.072128 7.333878
-83.923752 -4.277115 4.224686
-83.962204 -4.362045 4.349686
-83.797287 -4.102615 4.489609
-83.997391 -4.028549 4.463089
-83.780624 -4.269211 4.553665
-83.906998 -4.192001 4.578995
-83.929611 -4.109116 4.580826
-83.53978 -4.423752 4.973892
-83.662918 -4.263229 4.96669
-83.538223 -4.340073 4.999557
-83.863419 -4.022141 4.79393
-83.046463 -4.148422 4.95015
-83.355606 -4.080338 4.885086
-83.099442 -4.067795 4.954086
-83.097672 -4.150955 4.869095
-83.093033 -4.06749 5.036423
-83.565445 -4.258286 5.212509
-83.605606 -4.426651 5.062027
-83.605728 -4.009781 5.199509
-83.515945 -4.005478 5.10994
-83.878586 -4.274277 5.485916
-83.528549 -4.422562 5.475601
-83.947281 -4.109299 5.426468
-83.54985 -4.089859 5.317581
-83.484634 -4.170303 5.145248
-83.455429 -4.168839 5.226639
-83.438797 -4.084427 5.22612
-83.44252 -4.335129 5.497543
-83.474533 -4.169815 5.394913
-83.472305 -4.169693 5.311539
-83.519058 -4.506302 5.675583
-83.826492 -4.187393 5.502579
-83.349411 -4.413101 5.71727
-83.382675 -4.414841 5.550125
-83.445816 -4.252213 5.541641
-83.479324 -4.337051 5.584
-83.136642 -4.069626 5.709274
-83.123062 -4.068954 5.792496
-82.489792 -4.037979 5.582016
-84.680038 -2.442032 4.217911
-86.242477 -2.402481 4.442978
-86.490311 -3.367844 4.228317
-86.59407 -3.286484 4.160629
-86.953873 -3.38591 4.07457
-86.990524 -3.040817 4.244553
-86.719345 -3.031326 4.144272
-86.602066 -3.200729 4.121841
-86.23439 -3.102341 4.227402
-87.136978 -2.427383 4.31398
-87.583725 -2.439835 4.950485
-87.229935 -2.173233 4.523209
-86.128677 -2.399307 4.350266
-86.948044 -2.251205 4.478348
-86.725571 -2.58876 4.531265
-87.096115 -2.083389 5.186203
-87.140091 -2.690231 5.204117
-87.607681 -2.268173 5.040054
-87.012558 -2.081406 5.09407
-87.056046 -2.425125 5.35878
-86.013474 -2.56749 5.963455
-84.980698 -2.200211 4.547592
-85.177353 -3.316727 4.249619
-85.160782 -3.827133 4.075546
-85.179855 -3.827988 4.418625
-85.227188 -3.402756 4.295822
-85.280838 -3.404129 4.384689
-85.243027 -3.235214 4.438675
-85.237106 -3.23497 4.267166
-85.161911 -3.232132 4.348923
-84.181656 -3.444717 4.122818
-84.859512 -3.813583 4.487259
-84.791824 -3.810562 4.313339
-84.860886 -3.728653 4.463303
-84.060379 -3.946945 4.238297
-84.263351 -3.956467 4.163132
-84.246475 -3.870651 4.164688
-84.205734 -3.86879 4.078903
-84.105484 -3.864182 4.411148
-84.118668 -3.949661 4.325821
-84.212753 -3.615646 4.296921
-84.554886 -3.041916 4.059525
-84.943558 -3.307632 4.323257
-84.662186 -3.128952 4.284531
-84.353287 -3.367844 4.08284
-84.123611 -3.192734 4.126938
-84.186844 -3.111435 4.091385
-84.447342 -3.455582 4.390213
-84.114853 -3.949509 4.663376
-84.366226 -3.791428 4.630722
-84.064804 -3.693649 4.506302
-84.310257 -3.619156 4.808456
-84.260056 -3.447922 4.550583
-85.838821 -2.475449 4.447983
-85.714554 -2.909286 4.137558
-85.816666 -2.912735 4.227768
-85.766708 -2.305496 4.458359
-85.876633 -2.476547 4.363724
-85.790573 -2.306137 4.374344
-85.946304 -2.141251 4.542282
-85.504074 -2.381882 4.919235
-84.811478 -2.2798 4.921371
-84.872116 -2.114456 4.911575
-85.340714 -3.153763 5.088394
-85.079056 -3.737503 5.586227
-85.868057 -3.088486 5.762375
-84.580795 -3.042191 5.590927
-85.609879 -2.468857 5.21077
-85.614456 -2.555588 5.419235
-85.548416 -2.641068 5.624985
-85.872818 -2.392166 5.544174
-84.832687 -2.28038 5.177444
-84.860764 -2.197006 5.052475
-84.511887 -2.522659 5.943619
-86.1194 -0.070908 4.328384
-87.483994 -1.563705 4.050369
-86.220749 -1.541122 4.165756
-86.288986 -1.7155 4.394699
-86.809769 -1.639236 4.657669
-86.407974 -1.978836 4.998947
-86.833481 -1.286301 4.911789
-86.173294 -1.276535 4.615646
-87.188675 -0.071793 4.207108
-87.781601 -0.513382 4.470139
-87.345901 -0.772659 4.414963
-87.190689 -0.071793 4.119034
-86.736771 -0.420242 4.359573
-86.236954 -0.762863 4.445877
-86.477402 -0.679184 4.428238
-86.388138 -0.591293 4.350327
-86.742477 -0.071426 4.274673
-86.665207 -0.937698 4.629196
-86.330368 -0.678055 4.506546
-86.93779 -0.421219 4.807755
-87.111649 -1.378189 5.152664
-87.68306 -1.211105 5.412064
-87.085129 -1.028732 5.466171
-87.384842 -1.824448 5.970322
-87.401901 -1.737595 5.856247
-87.455521 -1.207962 5.660782
-87.445114 -1.207809 5.748886
-86.791061 -1.111282 5.422806
-86.77684 -1.899734 5.305069
-86.996017 -1.027664 5.373184
-86.522934 -1.368851 5.726303
-86.76152 -1.110886 5.681717
-86.638657 -1.370682 5.821823
-86.497635 -1.021774 5.689224
-87.043381 -0.769974 5.184494
-87.222855 -0.685013 5.95488
-87.150467 -0.596481 5.963943
-87.070419 -0.333633 5.590988
-87.272507 -0.422836 5.527084
-86.897018 -0.940201 5.252151
-86.833847 -0.768112 5.957962
-86.470963 -0.935562 5.659164
-84.115952 -0.407547 4.31282
-85.101639 -1.175461 4.057571
-85.872635 -1.534897 4.321243
-85.138687 -1.175949 4.399307
-85.619919 -1.616745 4.765732
-84.152542 -1.246628 4.169968
-84.876907 -1.687424 4.237595
-84.876053 -1.517075 4.014755
-84.879715 -1.517136 4.441635
-84.279648 -1.675552 4.123184
-84.401718 -1.677994 4.045456
-84.329758 -1.507309 4.328232
-84.40358 -1.593796 4.273636
-84.343643 -1.592667 4.356064
-84.859177 -1.42952 4.419601
-84.950912 -1.003525 4.30864
-84.969437 -1.087967 4.284378
-84.893692 -1.603043 4.640091
-84.110703 -1.503372 4.654709
-84.185013 -1.504715 4.574295
-84.752426 -1.427719 4.669266
-84.818863 -1.428848 4.50264
-84.770462 -1.428024 4.585159
-84.584152 -1.424881 4.99971
-85.086136 -0.582382 4.029221
-85.770767 -0.67366 4.133133
-84.164444 -0.238205 4.342758
-84.231766 -0.576553 4.073318
-84.760361 -0.495712 4.146225
-84.814102 -0.833511 4.584915
-85.192764 -1.090805 5.151535
-85.816483 -1.965286 5.1371
-85.097488 -1.606888 5.163895
-85.282578 -1.780563 5.398087
-85.626114 -1.096359 5.264236
-85.019974 -1.088608 5.055923
-85.402176 -1.179581 5.098831
-85.440414 -1.870468 5.651962
-85.511826 -1.352859 5.574203
-85.666946 -1.268997 5.620224
-85.752884 -1.012985 5.554916
-85.41304 -1.438828 5.993027
-84.878494 -1.429825 5.442673
-84.85878 -1.857742 5.102554
-84.368271 -1.50795 5.429947
-84.940231 -1.258255 5.487411
-84.980484 -1.344467 5.36879
-84.901535 -1.603165 5.663864
-84.899734 -1.603134 5.7491
-84.348923 -1.507614 5.513474
-84.33989 -1.507462 5.598557
-84.864456 -1.429581 5.527084
-84.859329 -1.429489 5.612869
-85.29924 -0.41246 5.657669
-85.944595 -0.760239 5.55159
-85.156235 -0.668808 5.556992
-85.611923 -0.328018 5.755447
-84.354324 -0.069412 5.255875
-84.363083 -0.746231 5.703812
-86.192978 -2.660965 6.186844
-86.154984 -3.957596 6.25087
-87.051743 -2.082321 6.147018
-87.375992 -2.347885 6.738113
-86.134262 -2.570267 6.492722
-86.143112 -3.869766 7.938278
-86.073715 -3.780441 7.820023
-86.152145 -3.697495 7.86586
-84.051865 -2.937332 6.889359
-85.048019 -3.99263 6.426743
-85.797073 -3.769028 6.410751
-85.763107 -3.767532 6.495071
-85.678665 -3.677872 6.438187
-85.014206 -3.819778 6.376205
-85.042709 -3.906509 6.255814
-85.019638 -3.991287 6.338821
-85.015579 -3.649399 6.47316
-85.801498 -3.855148 6.522385
-85.551254 -3.672379 6.68721
-85.566849 -3.587143 6.743851
-85.017136 -3.734726 6.865311
-84.000412 -3.437271 6.478378
-84.783768 -3.554306 6.425858
-84.956711 -3.646866 6.299179
-84.960922 -3.561752 6.524887
-84.989883 -3.562973 6.612717
-84.764938 -3.979355 6.917435
-84.759476 -3.808334 6.784897
-84.690628 -3.975876 6.996933
-84.886917 -3.643204 6.977615
-84.91954 -3.729752 6.943527
-84.509354 -3.54213 6.916061
-84.892654 -3.304916 6.710434
-84.983627 -3.056686 6.728226
-84.586227 -3.125351 6.661026
-84.956497 -3.391129 6.932144
-84.00264 -3.353073 6.600479
-84.272171 -3.113724 6.720535
-84.200211 -3.194351 6.585037
-84.317032 -3.449448 6.928574
-84.2827 -3.36348 6.961807
-84.073746 -3.272354 6.815201
-84.308365 -3.115005 6.894119
-84.376999 -3.201736 6.85405
-84.094681 -3.024063 6.82872
-84.021744 -2.766891 6.794632
-85.026016 -3.905746 7.282455
-85.999985 -3.604599 7.646164
-85.947403 -3.688705 7.76033
-85.20961 -3.316574 7.852097
-84.186844 -3.359665 7.20842
-84.731186 -3.977768 7.086563
-84.944748 -3.987808 7.18959
-84.945541 -3.902054 7.104965
-84.841782 -3.897293 7.010696
-84.92894 -3.815964 7.054062
-84.906021 -3.814926 7.137833
-84.954483 -3.646103 7.241074
-84.980606 -3.989487 7.277176
-84.053238 -3.607407 7.248245
-84.085709 -3.69313 7.384567
-84.106888 -3.694046 7.301712
-84.101883 -3.52507 7.391739
-84.035324 -3.606644 7.417191
-84.739059 -3.381699 7.084641
-84.249893 -3.279221 7.08342
-84.080368 -3.439774 7.333206
-84.156418 -3.442886 7.254929
-84.186905 -3.359665 7.293015
-84.231674 -3.278488 7.336807
-84.600266 -3.545944 7.606339
-84.784225 -3.553665 7.709274
-84.800827 -3.554367 7.795639
-84.523483 -3.54274 7.854721
-84.002792 -3.858047 7.70372
-84.489975 -3.626175 7.883987
-84.459183 -3.709518 7.843613
-84.487778 -3.626083 7.969986
-84.623001 -3.46199 7.721451
-84.8423 -3.302261 7.73259
-84.630905 -3.294052 7.542404
-84.776657 -3.216934 7.74321
-84.768082 -3.13176 7.616043
-84.617447 -3.210892 7.643204
-84.553207 -3.207077 7.551437
-84.535049 -3.039902 7.717941
-84.809433 -3.384506 7.947006
-84.951401 -3.390182 7.874863
-84.785751 -3.468643 7.821945
-84.768723 -3.467972 7.991653
-84.869186 -3.303329 7.906448
-84.516312 -3.457626 7.882462
-84.546524 -3.374008 7.751511
-85.326309 -2.459671 7.770798
-85.831223 -2.648972 7.980026
-85.238022 -2.543533 7.885483
-85.17598 -2.541702 7.965012
-85.19902 -2.542374 7.79509
-85.86348 -2.475143 7.907181
-85.364914 -2.377213 7.832809
-84.326492 -2.182755 7.226364
-84.675217 -2.526749 7.149124
-84.628586 -2.525345 7.316635
-84.017105 -2.008896 7.455917
-84.651474 -2.786911 7.698593
-84.636093 -2.786423 7.526321
-84.953537 -2.968155 7.905472
-84.892288 -2.87999 7.855515
-84.969162 -2.968674 7.992783
-84.524734 -2.608627 7.942429
-84.017563 -2.592972 7.554733
-84.676132 -2.275345 7.725174
-84.848434 -2.362839 7.699936
-84.767593 -2.277786 7.564102
-84.718002 -2.192856 7.515518
-84.512192 -2.35347 7.839035
-84.543839 -2.187729 7.75676
-84.018936 -2.339737 7.540054
-84.316818 -2.430557 7.935074
-86.164719 -0.330154 6.40004
-87.25148 -1.117172 6.15181
-87.991714 -1.303421 6.039505
-87.028946 -1.028061 6.250137
-86.118301 -1.188675 6.008011
-86.704697 -1.109329 6.200943
-86.390579 -1.89122 6.670151
-86.48204 -1.106491 6.5327
-86.689804 -0.158585 6.003586
-86.529861 -0.506027 6.056686
-86.00975 -0.930557 6.148361
-86.488022 -1.106552 7.144547
-86.367142 -1.977005 7.256271
-86.662491 -1.282883 7.167953
-87.007645 -0.420731 7.786026
-86.116257 -0.329147 7.004166
-86.367416 -0.243607 7.060471
-86.5345 -0.330765 7.909805
-86.029648 -0.416 7.959579
-84.131882 -1.16124 6.207138
-84.151749 -1.245743 6.450943
-84.002975 -1.923691 6.549881
-85.523331 -1.957687 7.012222
-85.583328 -1.872696 7.644424
-85.035385 -1.774582 7.607529
-84.124069 -1.330124 7.261765
-84.951614 -1.772842 7.085342
-84.16304 -1.841629 7.431931
-84.155807 -1.75621 7.443192
-84.041 -1.923752 7.31575
-84.04631 -1.839066 7.932083
-84.706924 -1.083786 7.594467
-84.313736 -1.333115 7.703354
-85.307907 -0.326065 7.19548
-85.880966 -0.328262 7.071548
-85.967606 -0.242477 7.114395
-85.352402 -0.069443 7.378555
-85.698227 -0.926346 7.939377
-85.16246 -0.06929 7.964157
-84.232773 -0.321945 7.189713
-84.871811 -0.917435 7.434799
-84.189682 -0.993759 7.486343
-84.252823 -0.994492 7.406967
-84.575638 -0.238541 7.16893
-84.546066 -0.068802 7.223526
-84.586746 -0.323318 7.389664
-84.618179 -0.323441 7.307083
-84.593918 -0.153976 7.391586
